-0.5812854558864843 0.1394699209097833 1.372310746284672
-0.5812854558864843 0.13627982144306097 1.3965419574290305
-0.5812854558864843 0.12692692304966247 1.4191218515778705
-0.5812854558864843 0.11204861029870253 1.4385116462599885
-0.5812854558864843 0.09265881561658468 1.4533899590109485
-0.5812854558864843 0.07007892146774447 1.4627428574043468
-0.5812854558864843 0.04584771032338603 1.4659329568710693
-0.5812854558864843 0.021616499179027585 1.4627428574043468
-0.5812854558864843 -9.633949698125907E-4 1.4533899590109485
-0.5812854558864843 -0.02035318965193046 1.4385116462599885
-0.5812854558864843 -0.03523150240289043 1.4191218515778705
-0.5812854558864843 -0.04458440079628892 1.3965419574290305
-0.5812854558864843 -0.04777450026301125 1.372310746284672
-0.5812854558864843 -0.04458440079628892 1.3480795351403134
-0.5812854558864843 -0.03523150240289044 1.3254996409914734
-0.5812854558864843 -0.020353189651930503 1.3061098463093554
-0.5812854558864843 -9.633949698126532E-4 1.2912315335583955
-0.5812854558864843 0.021616499179027585 1.2818786351649971
-0.5812854558864843 0.04584771032338601 1.2786885356982747
-0.5812854558864843 0.07007892146774444 1.2818786351649971
-0.5812854558864843 0.09265881561658468 1.2912315335583955
-0.5812854558864843 0.1120486102987025 1.3061098463093554
-0.5812854558864843 0.12692692304966247 1.3254996409914732
-0.5812854558864843 0.13627982144306094 1.3480795351403134
-0.5906349027359311 0.13508079152065391 1.372310746284672
-0.5906349027359311 0.13189069205393159 1.3965419574290305
-0.5906349027359311 0.12253779366053309 1.4191218515778705
-0.5906349027359311 0.10765948090957314 1.4385116462599885
-0.5906349027359311 0.08826968622745529 1.4533899590109485
-0.5906349027359311 0.06568979207861508 1.4627428574043468
-0.5906349027359311 0.041458580934256646 1.4659329568710693
-0.5906349027359311 0.017227369789898198 1.4627428574043468
-0.5906349027359311 -0.005352524358941978 1.4533899590109485
-0.5906349027359311 -0.02474231904105985 1.4385116462599885
-0.5906349027359311 -0.039620631792019814 1.4191218515778705
-0.5906349027359311 -0.04897353018541831 1.3965419574290305
-0.5906349027359311 -0.052163629652140636 1.372310746284672
-0.5906349027359311 -0.04897353018541831 1.3480795351403134
-0.5906349027359311 -0.03962063179201983 1.3254996409914734
-0.5906349027359311 -0.02474231904105989 1.3061098463093554
-0.5906349027359311 -0.00535252435894204 1.2912315335583955
-0.5906349027359311 0.017227369789898198 1.2818786351649971
-0.5906349027359311 0.041458580934256625 1.2786885356982747
-0.5906349027359311 0.06568979207861506 1.2818786351649971
-0.5906349027359311 0.08826968622745529 1.2912315335583955
-0.5906349027359311 0.10765948090957311 1.3061098463093554
-0.5906349027359311 0.12253779366053306 1.3254996409914732
-0.5906349027359311 0.13189069205393156 1.3480795351403134
-0.5999843495853779 0.13069166213152447 1.372310746284672
-0.5999843495853779 0.12750156266480214 1.3965419574290305
-0.5999843495853779 0.11814866427140365 1.4191218515778705
-0.5999843495853779 0.1032703515204437 1.4385116462599885
-0.5999843495853779 0.08388055683832585 1.4533899590109485
-0.5999843495853779 0.06130066268948565 1.4627428574043468
-0.5999843495853779 0.037069451545127204 1.4659329568710693
-0.5999843495853779 0.012838240400768756 1.4627428574043468
-0.5999843495853779 -0.00974165374807142 1.4533899590109485
-0.5999843495853779 -0.02913144843018929 1.4385116462599885
-0.5999843495853779 -0.04400976118114926 1.4191218515778705
-0.5999843495853779 -0.05336265957454775 1.3965419574290305
-0.5999843495853779 -0.05655275904127008 1.372310746284672
-0.5999843495853779 -0.05336265957454775 1.3480795351403134
-0.5999843495853779 -0.04400976118114927 1.3254996409914734
-0.5999843495853779 -0.029131448430189333 1.3061098463093554
-0.5999843495853779 -0.009741653748071483 1.2912315335583955
-0.5999843495853779 0.012838240400768756 1.2818786351649971
-0.5999843495853779 0.03706945154512718 1.2786885356982747
-0.5999843495853779 0.061300662689485606 1.2818786351649971
-0.5999843495853779 0.08388055683832585 1.2912315335583955
-0.5999843495853779 0.10327035152044367 1.3061098463093554
-0.5999843495853779 0.11814866427140362 1.3254996409914732
-0.5999843495853779 0.12750156266480211 1.3480795351403134
-0.6093337964348248 0.12630253274239514 1.372310746284672
-0.6093337964348248 0.12311243327567281 1.3965419574290305
-0.6093337964348248 0.11375953488227432 1.4191218515778705
-0.6093337964348248 0.09888122213131437 1.4385116462599885
-0.6093337964348248 0.07949142744919652 1.4533899590109485
-0.6093337964348248 0.056911533300356316 1.4627428574043468
-0.6093337964348248 0.03268032215599787 1.4659329568710693
-0.6093337964348248 0.008449111011639424 1.4627428574043468
-0.6093337964348248 -0.014130783137200752 1.4533899590109485
-0.6093337964348248 -0.03352057781931862 1.4385116462599885
-0.6093337964348248 -0.04839889057027859 1.4191218515778705
-0.6093337964348248 -0.05775178896367708 1.3965419574290305
-0.6093337964348248 -0.06094188843039941 1.372310746284672
-0.6093337964348248 -0.05775178896367708 1.3480795351403134
-0.6093337964348248 -0.0483988905702786 1.3254996409914734
-0.6093337964348248 -0.033520577819318664 1.3061098463093554
-0.6093337964348248 -0.014130783137200814 1.2912315335583955
-0.6093337964348248 0.008449111011639424 1.2818786351649971
-0.6093337964348248 0.03268032215599785 1.2786885356982747
-0.6093337964348248 0.056911533300356275 1.2818786351649971
-0.6093337964348248 0.07949142744919652 1.2912315335583955
-0.6093337964348248 0.09888122213131434 1.3061098463093554
-0.6093337964348248 0.11375953488227429 1.3254996409914732
-0.6093337964348248 0.1231124332756728 1.3480795351403134
-0.6186832432842717 0.1219134033532657 1.372310746284672
-0.6186832432842717 0.11872330388654337 1.3965419574290305
-0.6186832432842717 0.10937040549314488 1.4191218515778705
-0.6186832432842717 0.09449209274218492 1.4385116462599885
-0.6186832432842717 0.07510229806006707 1.4533899590109485
-0.6186832432842717 0.052522403911226874 1.4627428574043468
-0.6186832432842717 0.02829119276686843 1.4659329568710693
-0.6186832432842717 0.004059981622509982 1.4627428574043468
-0.6186832432842717 -0.018519912526330194 1.4533899590109485
-0.6186832432842717 -0.037909707208448065 1.4385116462599885
-0.6186832432842717 -0.05278801995940803 1.4191218515778705
-0.6186832432842717 -0.06214091835280652 1.3965419574290305
-0.6186832432842717 -0.06533101781952885 1.372310746284672
-0.6186832432842717 -0.06214091835280652 1.3480795351403134
-0.6186832432842717 -0.052788019959408045 1.3254996409914734
-0.6186832432842717 -0.03790970720844811 1.3061098463093554
-0.6186832432842717 -0.018519912526330257 1.2912315335583955
-0.6186832432842717 0.004059981622509982 1.2818786351649971
-0.6186832432842717 0.028291192766868405 1.2786885356982747
-0.6186832432842717 0.05252240391122683 1.2818786351649971
-0.6186832432842717 0.07510229806006707 1.2912315335583955
-0.6186832432842717 0.0944920927421849 1.3061098463093554
-0.6186832432842717 0.10937040549314485 1.3254996409914732
-0.6186832432842717 0.11872330388654335 1.3480795351403134
-0.6280326901337185 0.11752427396413631 1.372310746284672
-0.6280326901337185 0.11433417449741398 1.3965419574290305
-0.6280326901337185 0.10498127610401549 1.4191218515778705
-0.6280326901337185 0.09010296335305554 1.4385116462599885
-0.6280326901337185 0.07071316867093769 1.4533899590109485
-0.6280326901337185 0.04813327452209749 1.4627428574043468
-0.6280326901337185 0.023902063377739043 1.4659329568710693
-0.6280326901337185 -3.2914776661940523E-4 1.4627428574043468
-0.6280326901337185 -0.02290904191545958 1.4533899590109485
-0.6280326901337185 -0.04229883659757745 1.4385116462599885
-0.6280326901337185 -0.05717714934853742 1.4191218515778705
-0.6280326901337185 -0.06653004774193591 1.3965419574290305
-0.6280326901337185 -0.06972014720865824 1.372310746284672
-0.6280326901337185 -0.06653004774193591 1.3480795351403134
-0.6280326901337185 -0.05717714934853743 1.3254996409914734
-0.6280326901337185 -0.042298836597577494 1.3061098463093554
-0.6280326901337185 -0.022909041915459644 1.2912315335583955
-0.6280326901337185 -3.2914776661940523E-4 1.2818786351649971
-0.6280326901337185 0.02390206337773902 1.2786885356982747
-0.6280326901337185 0.048133274522097445 1.2818786351649971
-0.6280326901337185 0.07071316867093769 1.2912315335583955
-0.6280326901337185 0.09010296335305551 1.3061098463093554
-0.6280326901337185 0.10498127610401546 1.3254996409914732
-0.6280326901337185 0.11433417449741397 1.3480795351403134
-0.6373821369831654 0.11313514457500692 1.372310746284672
-0.6373821369831654 0.1099450451082846 1.3965419574290305
-0.6373821369831654 0.1005921467148861 1.4191218515778705
-0.6373821369831654 0.08571383396392615 1.4385116462599885
-0.6373821369831654 0.0663240392818083 1.4533899590109485
-0.6373821369831654 0.0437441451329681 1.4627428574043468
-0.6373821369831654 0.019512933988609656 1.4659329568710693
-0.6373821369831654 -0.004718277155748792 1.4627428574043468
-0.6373821369831654 -0.027298171304588968 1.4533899590109485
-0.6373821369831654 -0.04668796598670684 1.4385116462599885
-0.6373821369831654 -0.061566278737666805 1.4191218515778705
-0.6373821369831654 -0.0709191771310653 1.3965419574290305
-0.6373821369831654 -0.07410927659778763 1.372310746284672
-0.6373821369831654 -0.0709191771310653 1.3480795351403134
-0.6373821369831654 -0.06156627873766682 1.3254996409914734
-0.6373821369831654 -0.04668796598670688 1.3061098463093554
-0.6373821369831654 -0.02729817130458903 1.2912315335583955
-0.6373821369831654 -0.004718277155748792 1.2818786351649971
-0.6373821369831654 0.01951293398860963 1.2786885356982747
-0.6373821369831654 0.04374414513296806 1.2818786351649971
-0.6373821369831654 0.0663240392818083 1.2912315335583955
-0.6373821369831654 0.08571383396392612 1.3061098463093554
-0.6373821369831654 0.10059214671488607 1.3254996409914732
-0.6373821369831654 0.10994504510828458 1.3480795351403134
-0.6467315838326122 0.10874601518587754 1.372310746284672
-0.6467315838326122 0.10555591571915521 1.3965419574290305
-0.6467315838326122 0.09620301732575672 1.4191218515778705
-0.6467315838326122 0.08132470457479676 1.4385116462599885
-0.6467315838326122 0.061934909892678906 1.4533899590109485
-0.6467315838326122 0.03935501574383871 1.4627428574043468
-0.6467315838326122 0.015123804599480267 1.4659329568710693
-0.6467315838326122 -0.00910740654487818 1.4627428574043468
-0.6467315838326122 -0.031687300693718355 1.4533899590109485
-0.6467315838326122 -0.051077095375836226 1.4385116462599885
-0.6467315838326122 -0.06595540812679619 1.4191218515778705
-0.6467315838326122 -0.07530830652019468 1.3965419574290305
-0.6467315838326122 -0.07849840598691701 1.372310746284672
-0.6467315838326122 -0.07530830652019468 1.3480795351403134
-0.6467315838326122 -0.0659554081267962 1.3254996409914734
-0.6467315838326122 -0.05107709537583627 1.3061098463093554
-0.6467315838326122 -0.03168730069371842 1.2912315335583955
-0.6467315838326122 -0.00910740654487818 1.2818786351649971
-0.6467315838326122 0.015123804599480244 1.2786885356982747
-0.6467315838326122 0.03935501574383867 1.2818786351649971
-0.6467315838326122 0.061934909892678906 1.2912315335583955
-0.6467315838326122 0.08132470457479674 1.3061098463093554
-0.6467315838326122 0.09620301732575669 1.3254996409914732
-0.6467315838326122 0.1055559157191552 1.3480795351403134
-0.656081030682059 0.10435688579674815 1.372310746284672
-0.656081030682059 0.10116678633002582 1.3965419574290305
-0.656081030682059 0.09181388793662733 1.4191218515778705
-0.656081030682059 0.07693557518566738 1.4385116462599885
-0.656081030682059 0.05754578050354952 1.4533899590109485
-0.656081030682059 0.034965886354709326 1.4627428574043468
-0.656081030682059 0.01073467521035088 1.4659329568710693
-0.656081030682059 -0.013496535934007566 1.4627428574043468
-0.656081030682059 -0.03607643008284774 1.4533899590109485
-0.656081030682059 -0.05546622476496561 1.4385116462599885
-0.656081030682059 -0.07034453751592558 1.4191218515778705
-0.656081030682059 -0.07969743590932407 1.3965419574290305
-0.656081030682059 -0.0828875353760464 1.372310746284672
-0.656081030682059 -0.07969743590932407 1.3480795351403134
-0.656081030682059 -0.07034453751592559 1.3254996409914734
-0.656081030682059 -0.055466224764965655 1.3061098463093554
-0.656081030682059 -0.036076430082847805 1.2912315335583955
-0.656081030682059 -0.013496535934007566 1.2818786351649971
-0.656081030682059 0.010734675210350857 1.2786885356982747
-0.656081030682059 0.034965886354709284 1.2818786351649971
-0.656081030682059 0.05754578050354952 1.2912315335583955
-0.656081030682059 0.07693557518566735 1.3061098463093554
-0.656081030682059 0.0918138879366273 1.3254996409914732
-0.656081030682059 0.1011667863300258 1.3480795351403134
-0.665430477531506 0.09996775640761876 1.372310746284672
-0.665430477531506 0.09677765694089643 1.3965419574290305
-0.665430477531506 0.08742475854749794 1.4191218515778705
-0.665430477531506 0.07254644579653799 1.4385116462599885
-0.665430477531506 0.05315665111442013 1.4533899590109485
-0.665430477531506 0.03057675696557994 1.4627428574043468
-0.665430477531506 0.006345545821221494 1.4659329568710693
-0.665430477531506 -0.017885665323136953 1.4627428574043468
-0.665430477531506 -0.04046555947197713 1.4533899590109485
-0.665430477531506 -0.059855354154095 1.4385116462599885
-0.665430477531506 -0.07473366690505497 1.4191218515778705
-0.665430477531506 -0.08408656529845346 1.3965419574290305
-0.665430477531506 -0.08727666476517579 1.372310746284672
-0.665430477531506 -0.08408656529845346 1.3480795351403134
-0.665430477531506 -0.07473366690505498 1.3254996409914734
-0.665430477531506 -0.05985535415409504 1.3061098463093554
-0.665430477531506 -0.04046555947197719 1.2912315335583955
-0.665430477531506 -0.017885665323136953 1.2818786351649971
-0.665430477531506 0.00634554582122147 1.2786885356982747
-0.665430477531506 0.030576756965579897 1.2818786351649971
-0.665430477531506 0.05315665111442013 1.2912315335583955
-0.665430477531506 0.07254644579653796 1.3061098463093554
-0.665430477531506 0.08742475854749791 1.3254996409914732
-0.665430477531506 0.09677765694089642 1.3480795351403134
-0.6747799243809527 0.09557862701848938 1.372310746284672
-0.6747799243809527 0.09238852755176705 1.3965419574290305
-0.6747799243809527 0.08303562915836855 1.4191218515778705
-0.6747799243809527 0.0681573164074086 1.4385116462599885
-0.6747799243809527 0.048767521725290745 1.4533899590109485
-0.6747799243809527 0.026187627576450552 1.4627428574043468
-0.6747799243809527 0.0019564164320921063 1.4659329568710693
-0.6747799243809527 -0.02227479471226634 1.4627428574043468
-0.6747799243809527 -0.044854688861106516 1.4533899590109485
-0.6747799243809527 -0.06424448354322439 1.4385116462599885
-0.6747799243809527 -0.07912279629418435 1.4191218515778705
-0.6747799243809527 -0.08847569468758285 1.3965419574290305
-0.6747799243809527 -0.09166579415430517 1.372310746284672
-0.6747799243809527 -0.08847569468758285 1.3480795351403134
-0.6747799243809527 -0.07912279629418437 1.3254996409914734
-0.6747799243809527 -0.06424448354322443 1.3061098463093554
-0.6747799243809527 -0.04485468886110658 1.2912315335583955
-0.6747799243809527 -0.02227479471226634 1.2818786351649971
-0.6747799243809527 0.0019564164320920834 1.2786885356982747
-0.6747799243809527 0.02618762757645051 1.2818786351649971
-0.6747799243809527 0.048767521725290745 1.2912315335583955
-0.6747799243809527 0.06815731640740857 1.3061098463093554
-0.6747799243809527 0.08303562915836853 1.3254996409914732
-0.6747799243809527 0.09238852755176703 1.3480795351403134
-0.6841293712303996 0.09118949762935999 1.372310746284672
-0.6841293712303996 0.08799939816263766 1.3965419574290305
-0.6841293712303996 0.07864649976923917 1.4191218515778705
-0.6841293712303996 0.06376818701827922 1.4385116462599885
-0.6841293712303996 0.04437839233616136 1.4533899590109485
-0.6841293712303996 0.021798498187321165 1.4627428574043468
-0.6841293712303996 -0.0024327129570372807 1.4659329568710693
-0.6841293712303996 -0.026663924101395727 1.4627428574043468
-0.6841293712303996 -0.0492438182502359 1.4533899590109485
-0.6841293712303996 -0.06863361293235377 1.4385116462599885
-0.6841293712303996 -0.08351192568331374 1.4191218515778705
-0.6841293712303996 -0.09286482407671223 1.3965419574290305
-0.6841293712303996 -0.09605492354343456 1.372310746284672
-0.6841293712303996 -0.09286482407671223 1.3480795351403134
-0.6841293712303996 -0.08351192568331375 1.3254996409914734
-0.6841293712303996 -0.06863361293235382 1.3061098463093554
-0.6841293712303996 -0.049243818250235966 1.2912315335583955
-0.6841293712303996 -0.026663924101395727 1.2818786351649971
-0.6841293712303996 -0.0024327129570373036 1.2786885356982747
-0.6841293712303996 0.021798498187321123 1.2818786351649971
-0.6841293712303996 0.04437839233616136 1.2912315335583955
-0.6841293712303996 0.06376818701827919 1.3061098463093554
-0.6841293712303996 0.07864649976923914 1.3254996409914732
-0.6841293712303996 0.08799939816263765 1.3480795351403134
-0.6934788180798465 0.0868003682402306 1.372310746284672
-0.6934788180798465 0.08361026877350827 1.3965419574290305
-0.6934788180798465 0.07425737038010978 1.4191218515778705
-0.6934788180798465 0.05937905762914983 1.4385116462599885
-0.6934788180798465 0.03998926294703197 1.4533899590109485
-0.6934788180798465 0.017409368798191778 1.4627428574043468
-0.6934788180798465 -0.006821842346166667 1.4659329568710693
-0.6934788180798465 -0.031053053490525114 1.4627428574043468
-0.6934788180798465 -0.05363294763936529 1.4533899590109485
-0.6934788180798465 -0.07302274232148316 1.4385116462599885
-0.6934788180798465 -0.08790105507244313 1.4191218515778705
-0.6934788180798465 -0.09725395346584162 1.3965419574290305
-0.6934788180798465 -0.10044405293256395 1.372310746284672
-0.6934788180798465 -0.09725395346584162 1.3480795351403134
-0.6934788180798465 -0.08790105507244314 1.3254996409914734
-0.6934788180798465 -0.0730227423214832 1.3061098463093554
-0.6934788180798465 -0.05363294763936535 1.2912315335583955
-0.6934788180798465 -0.031053053490525114 1.2818786351649971
-0.6934788180798465 -0.006821842346166691 1.2786885356982747
-0.6934788180798465 0.017409368798191736 1.2818786351649971
-0.6934788180798465 0.03998926294703197 1.2912315335583955
-0.6934788180798465 0.0593790576291498 1.3061098463093554
-0.6934788180798465 0.07425737038010975 1.3254996409914732
-0.6934788180798465 0.08361026877350826 1.3480795351403134
-8.796040232411234E-4 -0.3125 0.0
-0.004094791643997495 -0.2880782254064569 0.0
-0.013521244783260791 -0.26532075439257297 0.0
-0.02851656623754062 -0.2457784709994454 0.0
-0.04805884963066817 -0.23078314954516557 0.0
-0.0708163206445521 -0.22135669640590228 0.0
-0.09523809523809523 -0.21814150878514588 0.0
-0.11965986983163836 -0.22135669640590228 0.0
-0.14241734084552227 -0.23078314954516554 0.0
-0.16195962423864985 -0.2457784709994454 0.0
-0.1769549456929297 -0.26532075439257297 0.0
-0.18638139883219296 -0.28807822540645683 0.0
-0.18959658645294936 -0.3125 0.0
-0.18638139883219296 -0.3369217745935431 0.0
-0.1769549456929297 -0.35967924560742703 0.0
-0.16195962423864987 -0.37922152900055456 0.0
-0.14241734084552232 -0.39421685045483446 0.0
-0.11965986983163836 -0.4036433035940977 0.0
-0.09523809523809525 -0.4068584912148541 0.0
-0.07081632064455215 -0.4036433035940977 0.0
-0.04805884963066817 -0.39421685045483446 0.0
-0.028516566237540647 -0.3792215290005546 0.0
-0.013521244783260819 -0.3596792456074271 0.0
-0.0040947916439975085 -0.3369217745935432 0.0
-0.006922439607501232 -0.3094123418418805 0.013861724709946182
-0.010137627228257604 -0.2849905672483374 0.013861724709946182
-0.0195640803675209 -0.26223309623445346 0.013861724709946182
-0.03455940182180073 -0.24269081284132588 0.013861724709946182
-0.05410168521492828 -0.22769549138704606 0.013861724709946182
-0.0768591562288122 -0.21826903824778277 0.013861724709946182
-0.10128093082235534 -0.21505385062702637 0.013861724709946182
-0.12570270541589845 -0.21826903824778277 0.013861724709946182
-0.14846017642978238 -0.22769549138704603 0.013861724709946182
-0.16800245982290996 -0.24269081284132588 0.013861724709946182
-0.1829977812771898 -0.26223309623445346 0.013861724709946182
-0.19242423441645307 -0.2849905672483373 0.013861724709946182
-0.19563942203720946 -0.3094123418418805 0.013861724709946182
-0.19242423441645307 -0.3338341164354236 0.013861724709946182
-0.1829977812771898 -0.3565915874493075 0.013861724709946182
-0.16800245982290998 -0.37613387084243505 0.013861724709946182
-0.14846017642978243 -0.39112919229671494 0.013861724709946182
-0.12570270541589845 -0.4005556454359782 0.013861724709946182
-0.10128093082235536 -0.4037708330567346 0.013861724709946182
-0.07685915622881226 -0.4005556454359782 0.013861724709946182
-0.05410168521492828 -0.39112919229671494 0.013861724709946182
-0.034559401821800756 -0.3761338708424351 0.013861724709946182
-0.019564080367520928 -0.3565915874493076 0.013861724709946182
-0.010137627228257617 -0.3338341164354237 0.013861724709946182
-0.012965275191761355 -0.3063246836837609 0.027723449419892365
-0.016180462812517726 -0.2819029090902178 0.027723449419892365
-0.025606915951781023 -0.2591454380763339 0.027723449419892365
-0.04060223740606085 -0.2396031546832063 0.027723449419892365
-0.0601445207991884 -0.2246078332289265 0.027723449419892365
-0.08290199181307234 -0.2151813800896632 0.027723449419892365
-0.10732376640661546 -0.2119661924689068 0.027723449419892365
-0.1317455410001586 -0.2151813800896632 0.027723449419892365
-0.15450301201404248 -0.22460783322892647 0.027723449419892365
-0.17404529540717006 -0.2396031546832063 0.027723449419892365
-0.1890406168614499 -0.2591454380763339 0.027723449419892365
-0.1984670700007132 -0.28190290909021776 0.027723449419892365
-0.20168225762146957 -0.3063246836837609 0.027723449419892365
-0.1984670700007132 -0.33074645827730403 0.027723449419892365
-0.1890406168614499 -0.35350392929118796 0.027723449419892365
-0.17404529540717012 -0.3730462126843155 0.027723449419892365
-0.15450301201404254 -0.3880415341385953 0.027723449419892365
-0.1317455410001586 -0.39746798727785865 0.027723449419892365
-0.10732376640661548 -0.40068317489861505 0.027723449419892365
-0.08290199181307237 -0.3974679872778587 0.027723449419892365
-0.0601445207991884 -0.3880415341385953 0.027723449419892365
-0.04060223740606088 -0.37304621268431554 0.027723449419892365
-0.02560691595178105 -0.353503929291188 0.027723449419892365
-0.01618046281251774 -0.33074645827730415 0.027723449419892365
-0.019008110776021464 -0.3032370255256414 0.041585174129838545
-0.022223298396777835 -0.2788152509320983 0.041585174129838545
-0.03164975153604113 -0.2560577799182144 0.041585174129838545
-0.04664507299032096 -0.2365154965250868 0.041585174129838545
-0.06618735638344851 -0.22152017507080698 0.041585174129838545
-0.08894482739733245 -0.2120937219315437 0.041585174129838545
-0.11336660199087557 -0.2088785343107873 0.041585174129838545
-0.1377883765844187 -0.2120937219315437 0.041585174129838545
-0.1605458475983026 -0.22152017507080696 0.041585174129838545
-0.18008813099143017 -0.2365154965250868 0.041585174129838545
-0.19508345244571001 -0.2560577799182144 0.041585174129838545
-0.2045099055849733 -0.27881525093209825 0.041585174129838545
-0.20772509320572968 -0.3032370255256414 0.041585174129838545
-0.2045099055849733 -0.3276588001191845 0.041585174129838545
-0.19508345244571001 -0.35041627113306845 0.041585174129838545
-0.18008813099143023 -0.36995855452619597 0.041585174129838545
-0.16054584759830265 -0.3849538759804758 0.041585174129838545
-0.1377883765844187 -0.39438032911973914 0.041585174129838545
-0.11336660199087559 -0.39759551674049554 0.041585174129838545
-0.08894482739733248 -0.3943803291197392 0.041585174129838545
-0.06618735638344851 -0.3849538759804758 0.041585174129838545
-0.04664507299032099 -0.369958554526196 0.041585174129838545
-0.03164975153604116 -0.3504162711330685 0.041585174129838545
-0.02222329839677785 -0.32765880011918463 0.041585174129838545
-0.025050946360281587 -0.3001493673675219 0.05544689883978473
-0.028266133981037958 -0.2757275927739788 0.05544689883978473
-0.037692587120301255 -0.25297012176009487 0.05544689883978473
-0.05268790857458108 -0.2334278383669673 0.05544689883978473
-0.07223019196770863 -0.21843251691268747 0.05544689883978473
-0.09498766298159256 -0.20900606377342418 0.05544689883978473
-0.1194094375751357 -0.20579087615266778 0.05544689883978473
-0.1438312121686788 -0.20900606377342418 0.05544689883978473
-0.16658868318256273 -0.21843251691268745 0.05544689883978473
-0.18613096657569028 -0.2334278383669673 0.05544689883978473
-0.20112628802997012 -0.25297012176009487 0.05544689883978473
-0.21055274116923345 -0.27572759277397874 0.05544689883978473
-0.2137679287899898 -0.3001493673675219 0.05544689883978473
-0.21055274116923345 -0.324571141961065 0.05544689883978473
-0.20112628802997015 -0.34732861297494894 0.05544689883978473
-0.18613096657569034 -0.36687089636807646 0.05544689883978473
-0.16658868318256279 -0.3818662178223563 0.05544689883978473
-0.1438312121686788 -0.3912926709616196 0.05544689883978473
-0.11940943757513571 -0.394507858582376 0.05544689883978473
-0.09498766298159261 -0.3912926709616197 0.05544689883978473
-0.07223019196770863 -0.3818662178223563 0.05544689883978473
-0.05268790857458111 -0.3668708963680765 0.05544689883978473
-0.03769258712030128 -0.347328612974949 0.05544689883978473
-0.028266133981037972 -0.3245711419610651 0.05544689883978473
-0.031093781944541696 -0.29706170920940234 0.06930862354973091
-0.03430896956529807 -0.2726399346158592 0.06930862354973091
-0.043735422704561364 -0.2498824636019753 0.06930862354973091
-0.05873074415884119 -0.23034018020884772 0.06930862354973091
-0.07827302755196874 -0.2153448587545679 0.06930862354973091
-0.10103049856585267 -0.2059184056153046 0.06930862354973091
-0.1254522731593958 -0.2027032179945482 0.06930862354973091
-0.14987404775293892 -0.2059184056153046 0.06930862354973091
-0.17263151876682284 -0.21534485875456788 0.06930862354973091
-0.1921738021599504 -0.23034018020884772 0.06930862354973091
-0.20716912361423023 -0.2498824636019753 0.06930862354973091
-0.21659557675349356 -0.27263993461585917 0.06930862354973091
-0.2198107643742499 -0.29706170920940234 0.06930862354973091
-0.21659557675349356 -0.32148348380294545 0.06930862354973091
-0.20716912361423026 -0.34424095481682937 0.06930862354973091
-0.19217380215995045 -0.3637832382099569 0.06930862354973091
-0.1726315187668229 -0.3787785596642368 0.06930862354973091
-0.14987404775293892 -0.38820501280350006 0.06930862354973091
-0.12545227315939583 -0.39142020042425646 0.06930862354973091
-0.10103049856585272 -0.38820501280350006 0.06930862354973091
-0.07827302755196874 -0.3787785596642368 0.06930862354973091
-0.05873074415884122 -0.36378323820995695 0.06930862354973091
-0.04373542270456139 -0.3442409548168294 0.06930862354973091
-0.03430896956529808 -0.32148348380294556 0.06930862354973091
-0.037136617528801805 -0.2939740510512828 0.08317034825967709
-0.040351805149558176 -0.2695522764577397 0.08317034825967709
-0.04977825828882147 -0.2467948054438558 0.08317034825967709
-0.0647735797431013 -0.2272525220507282 0.08317034825967709
-0.08431586313622885 -0.2122572005964484 0.08317034825967709
-0.10707333415011278 -0.2028307474571851 0.08317034825967709
-0.13149510874365591 -0.1996155598364287 0.08317034825967709
-0.15591688333719902 -0.2028307474571851 0.08317034825967709
-0.17867435435108295 -0.21225720059644837 0.08317034825967709
-0.1982166377442105 -0.2272525220507282 0.08317034825967709
-0.21321195919849034 -0.2467948054438558 0.08317034825967709
-0.22263841233775367 -0.26955227645773966 0.08317034825967709
-0.22585359995851 -0.2939740510512828 0.08317034825967709
-0.22263841233775367 -0.31839582564482594 0.08317034825967709
-0.21321195919849037 -0.34115329665870986 0.08317034825967709
-0.19821663774421056 -0.3606955800518374 0.08317034825967709
-0.178674354351083 -0.3756909015061173 0.08317034825967709
-0.15591688333719902 -0.38511735464538055 0.08317034825967709
-0.13149510874365594 -0.38833254226613695 0.08317034825967709
-0.10707333415011283 -0.38511735464538055 0.08317034825967709
-0.08431586313622885 -0.3756909015061173 0.08317034825967709
-0.06477357974310133 -0.36069558005183744 0.08317034825967709
-0.0497782582888215 -0.3411532966587099 0.08317034825967709
-0.04035180514955819 -0.31839582564482605 0.08317034825967709
-0.043179453113061914 -0.2908863928931633 0.09703207296962327
-0.046394640733818285 -0.2664646182996202 0.09703207296962327
-0.05582109387308158 -0.24370714728573628 0.09703207296962327
-0.07081641532736141 -0.2241648638926087 0.09703207296962327
-0.09035869872048896 -0.2091695424383289 0.09703207296962327
-0.11311616973437288 -0.1997430892990656 0.09703207296962327
-0.13753794432791602 -0.1965279016783092 0.09703207296962327
-0.16195971892145913 -0.1997430892990656 0.09703207296962327
-0.18471718993534306 -0.20916954243832886 0.09703207296962327
-0.2042594733284706 -0.2241648638926087 0.09703207296962327
-0.21925479478275045 -0.24370714728573628 0.09703207296962327
-0.22868124792201378 -0.26646461829962015 0.09703207296962327
-0.23189643554277012 -0.2908863928931633 0.09703207296962327
-0.22868124792201378 -0.3153081674867064 0.09703207296962327
-0.21925479478275048 -0.33806563850059035 0.09703207296962327
-0.20425947332847066 -0.3576079218937179 0.09703207296962327
-0.1847171899353431 -0.37260324334799777 0.09703207296962327
-0.16195971892145913 -0.38202969648726104 0.09703207296962327
-0.13753794432791605 -0.38524488410801744 0.09703207296962327
-0.11311616973437294 -0.38202969648726104 0.09703207296962327
-0.09035869872048896 -0.37260324334799777 0.09703207296962327
-0.07081641532736144 -0.35760792189371793 0.09703207296962327
-0.05582109387308161 -0.3380656385005904 0.09703207296962327
-0.0463946407338183 -0.31530816748670654 0.09703207296962327
-0.04922228869732205 -0.28779873473504375 0.11089379767956946
-0.05243747631807842 -0.26337696014150064 0.11089379767956946
-0.06186392945734172 -0.24061948912761671 0.11089379767956946
-0.07685925091162155 -0.22107720573448914 0.11089379767956946
-0.0964015343047491 -0.20608188428020932 0.11089379767956946
-0.11915900531863302 -0.19665543114094602 0.11089379767956946
-0.14358077991217616 -0.19344024352018963 0.11089379767956946
-0.16800255450571927 -0.19665543114094602 0.11089379767956946
-0.1907600255196032 -0.2060818842802093 0.11089379767956946
-0.21030230891273077 -0.22107720573448914 0.11089379767956946
-0.22529763036701062 -0.24061948912761671 0.11089379767956946
-0.23472408350627388 -0.2633769601415006 0.11089379767956946
-0.23793927112703028 -0.28779873473504375 0.11089379767956946
-0.23472408350627388 -0.31222050932858686 0.11089379767956946
-0.22529763036701062 -0.3349779803424708 0.11089379767956946
-0.2103023089127308 -0.3545202637355983 0.11089379767956946
-0.19076002551960325 -0.36951558518987815 0.11089379767956946
-0.16800255450571927 -0.3789420383291415 0.11089379767956946
-0.1435807799121762 -0.38215722594989787 0.11089379767956946
-0.11915900531863308 -0.37894203832914153 0.11089379767956946
-0.0964015343047491 -0.36951558518987815 0.11089379767956946
-0.07685925091162157 -0.35452026373559836 0.11089379767956946
-0.061863929457341746 -0.33497798034247084 0.11089379767956946
-0.052437476318078435 -0.31222050932858697 0.11089379767956946
-0.05526512428158216 -0.28471107657692424 0.12475552238951564
-0.05848031190233853 -0.2602893019833811 0.12475552238951564
-0.06790676504160183 -0.2375318309694972 0.12475552238951564
-0.08290208649588166 -0.21798954757636962 0.12475552238951564
-0.1024443698890092 -0.2029942261220898 0.12475552238951564
-0.12520184090289313 -0.1935677729828265 0.12475552238951564
-0.14962361549643627 -0.19035258536207011 0.12475552238951564
-0.17404539008997938 -0.1935677729828265 0.12475552238951564
-0.1968028611038633 -0.20299422612208978 0.12475552238951564
-0.21634514449699088 -0.21798954757636962 0.12475552238951564
-0.23134046595127072 -0.2375318309694972 0.12475552238951564
-0.240766919090534 -0.26028930198338107 0.12475552238951564
-0.2439821067112904 -0.28471107657692424 0.12475552238951564
-0.240766919090534 -0.30913285117046735 0.12475552238951564
-0.23134046595127072 -0.33189032218435127 0.12475552238951564
-0.2163451444969909 -0.3514326055774788 0.12475552238951564
-0.19680286110386336 -0.36642792703175864 0.12475552238951564
-0.17404539008997938 -0.37585438017102196 0.12475552238951564
-0.1496236154964363 -0.37906956779177836 0.12475552238951564
-0.12520184090289319 -0.375854380171022 0.12475552238951564
-0.1024443698890092 -0.36642792703175864 0.12475552238951564
-0.08290208649588168 -0.35143260557747885 0.12475552238951564
-0.06790676504160185 -0.3318903221843513 0.12475552238951564
-0.058480311902338544 -0.30913285117046746 0.12475552238951564
-0.06130795986584227 -0.2816234184188047 0.13861724709946183
-0.06452314748659864 -0.2572016438252616 0.13861724709946183
-0.07394960062586194 -0.2344441728113777 0.13861724709946183
-0.08894492208014176 -0.2149018894182501 0.13861724709946183
-0.10848720547326932 -0.1999065679639703 0.13861724709946183
-0.13124467648715324 -0.190480114824707 0.13861724709946183
-0.15566645108069638 -0.1872649272039506 0.13861724709946183
-0.1800882256742395 -0.190480114824707 0.13861724709946183
-0.2028456966881234 -0.19990656796397027 0.13861724709946183
-0.222387980081251 -0.2149018894182501 0.13861724709946183
-0.23738330153553083 -0.2344441728113777 0.13861724709946183
-0.2468097546747941 -0.25720164382526156 0.13861724709946183
-0.2500249422955505 -0.2816234184188047 0.13861724709946183
-0.2468097546747941 -0.30604519301234784 0.13861724709946183
-0.23738330153553083 -0.32880266402623176 0.13861724709946183
-0.22238798008125102 -0.3483449474193593 0.13861724709946183
-0.20284569668812347 -0.3633402688736391 0.13861724709946183
-0.1800882256742395 -0.37276672201290245 0.13861724709946183
-0.1556664510806964 -0.37598190963365885 0.13861724709946183
-0.1312446764871533 -0.3727667220129025 0.13861724709946183
-0.10848720547326932 -0.3633402688736391 0.13861724709946183
-0.08894492208014179 -0.34834494741935934 0.13861724709946183
-0.07394960062586196 -0.3288026640262318 0.13861724709946183
-0.06452314748659865 -0.30604519301234795 0.13861724709946183
-0.06735079545010238 -0.27853576026068516 0.15247897180940798
-0.07056598307085875 -0.25411398566714205 0.15247897180940798
-0.07999243621012204 -0.23135651465325813 0.15247897180940798
-0.09498775766440187 -0.21181423126013055 0.15247897180940798
-0.11453004105752942 -0.19681890980585073 0.15247897180940798
-0.13728751207141335 -0.18739245666658744 0.15247897180940798
-0.1617092866649565 -0.18417726904583104 0.15247897180940798
-0.1861310612584996 -0.18739245666658744 0.15247897180940798
-0.20888853227238352 -0.1968189098058507 0.15247897180940798
-0.2284308156655111 -0.21181423126013055 0.15247897180940798
-0.24342613711979094 -0.23135651465325813 0.15247897180940798
-0.2528525902590542 -0.254113985667142 0.15247897180940798
-0.2560677778798106 -0.27853576026068516 0.15247897180940798
-0.2528525902590542 -0.30295753485422827 0.15247897180940798
-0.24342613711979094 -0.3257150058681122 0.15247897180940798
-0.22843081566551113 -0.3452572892612397 0.15247897180940798
-0.20888853227238358 -0.3602526107155196 0.15247897180940798
-0.1861310612584996 -0.3696790638547829 0.15247897180940798
-0.16170928666495651 -0.3728942514755393 0.15247897180940798
-0.1372875120714134 -0.3696790638547829 0.15247897180940798
-0.11453004105752942 -0.3602526107155196 0.15247897180940798
-0.0949877576644019 -0.3452572892612398 0.15247897180940798
-0.07999243621012207 -0.32571500586811225 0.15247897180940798
-0.07056598307085876 -0.3029575348542284 0.15247897180940798
-0.07339363103436249 -0.27544810210256565 0.16634069651935418
-0.07660881865511886 -0.25102632750902254 0.16634069651935418
-0.08603527179438215 -0.22826885649513862 0.16634069651935418
-0.10103059324866198 -0.20872657310201104 0.16634069651935418
-0.12057287664178953 -0.19373125164773122 0.16634069651935418
-0.14333034765567346 -0.18430479850846793 0.16634069651935418
-0.1677521222492166 -0.18108961088771153 0.16634069651935418
-0.1921738968427597 -0.18430479850846793 0.16634069651935418
-0.21493136785664363 -0.1937312516477312 0.16634069651935418
-0.2344736512497712 -0.20872657310201104 0.16634069651935418
-0.24946897270405105 -0.22826885649513862 0.16634069651935418
-0.2588954258433143 -0.2510263275090225 0.16634069651935418
-0.2621106134640707 -0.27544810210256565 0.16634069651935418
-0.2588954258433143 -0.29986987669610876 0.16634069651935418
-0.24946897270405105 -0.3226273477099927 0.16634069651935418
-0.23447365124977124 -0.3421696311031202 0.16634069651935418
-0.21493136785664368 -0.3571649525574001 0.16634069651935418
-0.1921738968427597 -0.3665914056966634 0.16634069651935418
-0.16775212224921662 -0.3698065933174198 0.16634069651935418
-0.1433303476556735 -0.3665914056966634 0.16634069651935418
-0.12057287664178953 -0.3571649525574001 0.16634069651935418
-0.10103059324866201 -0.34216963110312026 0.16634069651935418
-0.08603527179438218 -0.32262734770999274 0.16634069651935418
-0.07660881865511887 -0.2998698766961089 0.16634069651935418
-0.0794364666186226 -0.27236044394444614 0.18020242122930039
-0.08265165423937897 -0.247938669350903 0.18020242122930039
-0.09207810737864226 -0.2251811983370191 0.18020242122930039
-0.10707342883292209 -0.20563891494389153 0.18020242122930039
-0.12661571222604964 -0.1906435934896117 0.18020242122930039
-0.14937318323993357 -0.18121714035034842 0.18020242122930039
-0.1737949578334767 -0.17800195272959202 0.18020242122930039
-0.19821673242701981 -0.18121714035034842 0.18020242122930039
-0.22097420344090374 -0.19064359348961168 0.18020242122930039
-0.24051648683403132 -0.20563891494389153 0.18020242122930039
-0.25551180828831116 -0.2251811983370191 0.18020242122930039
-0.26493826142757443 -0.24793866935090297 0.18020242122930039
-0.2681534490483308 -0.27236044394444614 0.18020242122930039
-0.26493826142757443 -0.29678221853798925 0.18020242122930039
-0.25551180828831116 -0.3195396895518732 0.18020242122930039
-0.24051648683403135 -0.3390819729450007 0.18020242122930039
-0.2209742034409038 -0.3540772943992806 0.18020242122930039
-0.19821673242701981 -0.36350374753854386 0.18020242122930039
-0.17379495783347673 -0.36671893515930026 0.18020242122930039
-0.14937318323993362 -0.36350374753854386 0.18020242122930039
-0.12661571222604964 -0.3540772943992806 0.18020242122930039
-0.10707342883292212 -0.33908197294500075 0.18020242122930039
-0.09207810737864229 -0.31953968955187323 0.18020242122930039
-0.08265165423937898 -0.29678221853798936 0.18020242122930039
-0.0854793022028827 -0.26927278578632663 0.19406414593924654
-0.08869448982363907 -0.2448510111927835 0.19406414593924654
-0.09812094296290237 -0.2220935401788996 0.19406414593924654
-0.1131162644171822 -0.20255125678577202 0.19406414593924654
-0.13265854781030975 -0.1875559353314922 0.19406414593924654
-0.15541601882419367 -0.1781294821922289 0.19406414593924654
-0.1798377934177368 -0.1749142945714725 0.19406414593924654
-0.20425956801127992 -0.1781294821922289 0.19406414593924654
-0.22701703902516385 -0.18755593533149217 0.19406414593924654
-0.24655932241829143 -0.20255125678577202 0.19406414593924654
-0.26155464387257127 -0.2220935401788996 0.19406414593924654
-0.27098109701183454 -0.24485101119278346 0.19406414593924654
-0.27419628463259094 -0.26927278578632663 0.19406414593924654
-0.27098109701183454 -0.29369456037986974 0.19406414593924654
-0.26155464387257127 -0.31645203139375366 0.19406414593924654
-0.24655932241829145 -0.3359943147868812 0.19406414593924654
-0.2270170390251639 -0.3509896362411611 0.19406414593924654
-0.20425956801127992 -0.36041608938042435 0.19406414593924654
-0.17983779341773684 -0.36363127700118075 0.19406414593924654
-0.15541601882419373 -0.36041608938042435 0.19406414593924654
-0.13265854781030975 -0.3509896362411611 0.19406414593924654
-0.11311626441718223 -0.33599431478688124 0.19406414593924654
-0.0981209429629024 -0.3164520313937537 0.19406414593924654
-0.08869448982363909 -0.29369456037986985 0.19406414593924654
-0.09152213778714281 -0.26618512762820706 0.20792587064919274
-0.09473732540789918 -0.24176335303466392 0.20792587064919274
-0.10416377854716248 -0.21900588202078003 0.20792587064919274
-0.11915910000144231 -0.19946359862765245 0.20792587064919274
-0.13870138339456986 -0.18446827717337264 0.20792587064919274
-0.16145885440845378 -0.17504182403410934 0.20792587064919274
-0.18588062900199692 -0.17182663641335294 0.20792587064919274
-0.21030240359554003 -0.17504182403410934 0.20792587064919274
-0.23305987460942396 -0.1844682771733726 0.20792587064919274
-0.25260215800255154 -0.19946359862765245 0.20792587064919274
-0.2675974794568314 -0.21900588202078003 0.20792587064919274
-0.27702393259609465 -0.2417633530346639 0.20792587064919274
-0.28023912021685105 -0.26618512762820706 0.20792587064919274
-0.27702393259609465 -0.2906069022217502 0.20792587064919274
-0.2675974794568314 -0.3133643732356341 0.20792587064919274
-0.2526021580025516 -0.3329066566287616 0.20792587064919274
-0.233059874609424 -0.34790197808304146 0.20792587064919274
-0.21030240359554003 -0.3573284312223048 0.20792587064919274
-0.18588062900199695 -0.3605436188430612 0.20792587064919274
-0.16145885440845384 -0.35732843122230484 0.20792587064919274
-0.13870138339456986 -0.34790197808304146 0.20792587064919274
-0.11915910000144234 -0.3329066566287617 0.20792587064919274
-0.10416377854716251 -0.31336437323563415 0.20792587064919274
-0.0947373254078992 -0.2906069022217503 0.20792587064919274
-0.09756497337140295 -0.26309746947008755 0.22178759535913892
-0.10078016099215932 -0.23867569487654441 0.22178759535913892
-0.11020661413142262 -0.21591822386266052 0.22178759535913892
-0.12520193558570245 -0.19637594046953294 0.22178759535913892
-0.14474421897883 -0.18138061901525313 0.22178759535913892
-0.16750168999271392 -0.17195416587598983 0.22178759535913892
-0.19192346458625706 -0.16873897825523343 0.22178759535913892
-0.21634523917980017 -0.17195416587598983 0.22178759535913892
-0.2391027101936841 -0.1813806190152531 0.22178759535913892
-0.25864499358681164 -0.19637594046953294 0.22178759535913892
-0.2736403150410915 -0.21591822386266052 0.22178759535913892
-0.2830667681803548 -0.2386756948765444 0.22178759535913892
-0.28628195580111115 -0.26309746947008755 0.22178759535913892
-0.2830667681803548 -0.28751924406363066 0.22178759535913892
-0.27364031504109154 -0.3102767150775146 0.22178759535913892
-0.2586449935868117 -0.3298189984706421 0.22178759535913892
-0.23910271019368415 -0.34481431992492195 0.22178759535913892
-0.21634523917980017 -0.3542407730641853 0.22178759535913892
-0.1919234645862571 -0.3574559606849417 0.22178759535913892
-0.16750168999271398 -0.35424077306418533 0.22178759535913892
-0.14474421897883 -0.34481431992492195 0.22178759535913892
-0.12520193558570247 -0.32981899847064217 0.22178759535913892
-0.11020661413142264 -0.31027671507751464 0.22178759535913892
-0.10078016099215933 -0.2875192440636308 0.22178759535913892
-0.10360780895566303 -0.260009811311968 0.2356493200690851
-0.1068229965764194 -0.23558803671842485 0.2356493200690851
-0.1162494497156827 -0.21283056570454095 0.2356493200690851
-0.13124477116996253 -0.19328828231141337 0.2356493200690851
-0.15078705456309008 -0.17829296085713356 0.2356493200690851
-0.173544525576974 -0.16886650771787026 0.2356493200690851
-0.19796630017051714 -0.16565132009711386 0.2356493200690851
-0.22238807476406025 -0.16886650771787026 0.2356493200690851
-0.24514554577794417 -0.17829296085713353 0.2356493200690851
-0.26468782917107175 -0.19328828231141337 0.2356493200690851
-0.2796831506253516 -0.21283056570454095 0.2356493200690851
-0.28910960376461486 -0.23558803671842482 0.2356493200690851
-0.29232479138537126 -0.260009811311968 0.2356493200690851
-0.28910960376461486 -0.2844315859055111 0.2356493200690851
-0.2796831506253516 -0.307189056919395 0.2356493200690851
-0.2646878291710718 -0.32673134031252254 0.2356493200690851
-0.24514554577794423 -0.34172666176680244 0.2356493200690851
-0.22238807476406025 -0.3511531149060657 0.2356493200690851
-0.19796630017051717 -0.3543683025268221 0.2356493200690851
-0.17354452557697406 -0.3511531149060657 0.2356493200690851
-0.15078705456309008 -0.34172666176680244 0.2356493200690851
-0.13124477116996255 -0.3267313403125226 0.2356493200690851
-0.11624944971568273 -0.3071890569193951 0.2356493200690851
-0.10682299657641942 -0.2844315859055112 0.2356493200690851
-0.10965064453992317 -0.2569221531538485 0.24951104477903127
-0.11286583216067954 -0.23250037856030534 0.24951104477903127
-0.12229228529994284 -0.20974290754642144 0.24951104477903127
-0.13728760675422266 -0.19020062415329386 0.24951104477903127
-0.15682989014735021 -0.17520530269901405 0.24951104477903127
-0.17958736116123414 -0.16577884955975075 0.24951104477903127
-0.20400913575477728 -0.16256366193899435 0.24951104477903127
-0.2284309103483204 -0.16577884955975075 0.24951104477903127
-0.2511883813622043 -0.17520530269901402 0.24951104477903127
-0.27073066475533186 -0.19020062415329386 0.24951104477903127
-0.2857259862096117 -0.20974290754642144 0.24951104477903127
-0.29515243934887503 -0.2325003785603053 0.24951104477903127
-0.29836762696963137 -0.2569221531538485 0.24951104477903127
-0.29515243934887503 -0.2813439277473916 0.24951104477903127
-0.28572598620961176 -0.3041013987612755 0.24951104477903127
-0.2707306647553319 -0.32364368215440303 0.24951104477903127
-0.25118838136220434 -0.33863900360868293 0.24951104477903127
-0.2284309103483204 -0.3480654567479462 0.24951104477903127
-0.2040091357547773 -0.3512806443687026 0.24951104477903127
-0.1795873611612342 -0.3480654567479462 0.24951104477903127
-0.15682989014735021 -0.33863900360868293 0.24951104477903127
-0.1372876067542227 -0.3236436821544031 0.24951104477903127
-0.12229228529994286 -0.30410139876127557 0.24951104477903127
-0.11286583216067955 -0.2813439277473917 0.24951104477903127
-0.11569348012418328 -0.25383449499572897 0.2633727694889774
-0.11890866774493965 -0.22941272040218583 0.2633727694889774
-0.12833512088420296 -0.20665524938830193 0.2633727694889774
-0.14333044233848277 -0.18711296599517435 0.2633727694889774
-0.16287272573161032 -0.17211764454089454 0.2633727694889774
-0.18563019674549425 -0.16269119140163124 0.2633727694889774
-0.21005197133903739 -0.15947600378087484 0.2633727694889774
-0.2344737459325805 -0.16269119140163124 0.2633727694889774
-0.2572312169464644 -0.1721176445408945 0.2633727694889774
-0.27677350033959197 -0.18711296599517435 0.2633727694889774
-0.2917688217938718 -0.20665524938830193 0.2633727694889774
-0.30119527493313514 -0.2294127204021858 0.2633727694889774
-0.3044104625538915 -0.25383449499572897 0.2633727694889774
-0.30119527493313514 -0.2782562695892721 0.2633727694889774
-0.29176882179387187 -0.301013740603156 0.2633727694889774
-0.276773500339592 -0.3205560239962835 0.2633727694889774
-0.25723121694646445 -0.3355513454505634 0.2633727694889774
-0.2344737459325805 -0.3449777985898267 0.2633727694889774
