1.0301977475502873 2.533149839099441 1.897245772155802
1.0301977475502873 2.527725013166705 1.9043155429545908
1.0301977475502873 2.520655242367916 1.909740368887327
1.0301977475502873 2.5124223198996636 1.9131505570316434
1.0301977475502873 2.503587305822611 1.914313708701107
1.0301977475502873 2.494752291745558 1.9131505570316434
1.0301977475502873 2.4865193692773055 1.909740368887327
1.0301977475502873 2.4794495984785168 1.9043155429545908
1.0301977475502873 2.4740247725457807 1.897245772155802
1.0301977475502873 2.4706145844014644 1.8890128496875493
1.0301977475502873 2.4694514327320003 1.8801778356104968
1.0301977475502873 2.4706145844014644 1.8713428215334442
1.0301977475502873 2.4740247725457807 1.8631098990651915
1.0301977475502873 2.4794495984785168 1.8560401282664027
1.0301977475502873 2.4865193692773055 1.8506153023336667
1.0301977475502873 2.494752291745558 1.8472051141893502
1.0301977475502873 2.503587305822611 1.8460419625198865
1.0301977475502873 2.5124223198996636 1.8472051141893502
1.0301977475502873 2.520655242367916 1.8506153023336667
1.0301977475502873 2.527725013166705 1.8560401282664027
1.0301977475502873 2.533149839099441 1.8631098990651915
1.0301977475502873 2.536560027243757 1.8713428215334442
1.0458516689633712 2.5229154154143583 1.8801778356104968
1.0458516689633712 2.521752263744894 1.8890128496875493
1.0458516689633712 2.518342075600578 1.897245772155802
1.0458516689633712 2.512917249667842 1.9043155429545908
1.0458516689633712 2.505847478869053 1.909740368887327
1.0458516689633712 2.4976145564008005 1.9131505570316434
1.0458516689633712 2.4887795423237478 1.914313708701107
1.0458516689633712 2.479944528246695 1.9131505570316434
1.0458516689633712 2.4717116057784425 1.909740368887327
1.0458516689633712 2.4646418349796537 1.9043155429545908
1.0458516689633712 2.4592170090469176 1.897245772155802
1.0458516689633712 2.4558068209026014 1.8890128496875493
1.0458516689633712 2.4546436692331373 1.8801778356104968
1.0458516689633712 2.4558068209026014 1.8713428215334442
1.0458516689633712 2.4592170090469176 1.8631098990651915
1.0458516689633712 2.4646418349796537 1.8560401282664027
1.0458516689633712 2.4717116057784425 1.8506153023336667
1.0458516689633712 2.479944528246695 1.8472051141893502
1.0458516689633712 2.4887795423237478 1.8460419625198865
1.0458516689633712 2.4976145564008005 1.8472051141893502
1.0458516689633712 2.505847478869053 1.8506153023336667
1.0458516689633712 2.512917249667842 1.8560401282664027
1.0458516689633712 2.518342075600578 1.8631098990651915
1.0458516689633712 2.521752263744894 1.8713428215334442
1.0615055903764548 2.5081076519154952 1.8801778356104968
1.0615055903764548 2.506944500246031 1.8890128496875493
1.0615055903764548 2.503534312101715 1.897245772155802
1.0615055903764548 2.4981094861689788 1.9043155429545908
1.0615055903764548 2.49103971537019 1.909740368887327
1.0615055903764548 2.4828067929019375 1.9131505570316434
1.0615055903764548 2.4739717788248847 1.914313708701107
1.0615055903764548 2.465136764747832 1.9131505570316434
1.0615055903764548 2.4569038422795795 1.909740368887327
1.0615055903764548 2.4498340714807907 1.9043155429545908
1.0615055903764548 2.4444092455480546 1.897245772155802
1.0615055903764548 2.4409990574037383 1.8890128496875493
1.0615055903764548 2.4398359057342742 1.8801778356104968
1.0615055903764548 2.4409990574037383 1.8713428215334442
1.0615055903764548 2.4444092455480546 1.8631098990651915
1.0615055903764548 2.4498340714807907 1.8560401282664027
1.0615055903764548 2.4569038422795795 1.8506153023336667
1.0615055903764548 2.465136764747832 1.8472051141893502
1.0615055903764548 2.4739717788248847 1.8460419625198865
1.0615055903764548 2.4828067929019375 1.8472051141893502
1.0615055903764548 2.49103971537019 1.8506153023336667
1.0615055903764548 2.4981094861689788 1.8560401282664027
1.0615055903764548 2.503534312101715 1.8631098990651915
1.0615055903764548 2.506944500246031 1.8713428215334442
1.0771595117895383 2.493299888416632 1.8801778356104968
1.0771595117895383 2.492136736747168 1.8890128496875493
1.0771595117895383 2.488726548602852 1.897245772155802
1.0771595117895383 2.4833017226701157 1.9043155429545908
1.0771595117895383 2.476231951871327 1.909740368887327
1.0771595117895383 2.4679990294030745 1.9131505570316434
1.0771595117895383 2.4591640153260217 1.914313708701107
1.0771595117895383 2.450329001248969 1.9131505570316434
1.0771595117895383 2.4420960787807164 1.909740368887327
1.0771595117895383 2.4350263079819277 1.9043155429545908
1.0771595117895383 2.4296014820491916 1.897245772155802
1.0771595117895383 2.4261912939048753 1.8890128496875493
1.0771595117895383 2.425028142235411 1.8801778356104968
1.0771595117895383 2.4261912939048753 1.8713428215334442
1.0771595117895383 2.4296014820491916 1.8631098990651915
1.0771595117895383 2.4350263079819277 1.8560401282664027
1.0771595117895383 2.4420960787807164 1.8506153023336667
1.0771595117895383 2.450329001248969 1.8472051141893502
1.0771595117895383 2.4591640153260217 1.8460419625198865
1.0771595117895383 2.4679990294030745 1.8472051141893502
1.0771595117895383 2.476231951871327 1.8506153023336667
1.0771595117895383 2.4833017226701157 1.8560401282664027
1.0771595117895383 2.488726548602852 1.8631098990651915
1.0771595117895383 2.492136736747168 1.8713428215334442
1.0928134332026223 2.4784921249177696 1.8801778356104968
1.0928134332026223 2.4773289732483055 1.8890128496875493
1.0928134332026223 2.473918785103989 1.897245772155802
1.0928134332026223 2.468493959171253 1.9043155429545908
1.0928134332026223 2.4614241883724644 1.909740368887327
1.0928134332026223 2.453191265904212 1.9131505570316434
1.0928134332026223 2.444356251827159 1.914313708701107
1.0928134332026223 2.4355212377501063 1.9131505570316434
1.0928134332026223 2.427288315281854 1.909740368887327
1.0928134332026223 2.420218544483065 1.9043155429545908
1.0928134332026223 2.414793718550329 1.897245772155802
1.0928134332026223 2.4113835304060127 1.8890128496875493
1.0928134332026223 2.4102203787365486 1.8801778356104968
1.0928134332026223 2.4113835304060127 1.8713428215334442
1.0928134332026223 2.414793718550329 1.8631098990651915
1.0928134332026223 2.420218544483065 1.8560401282664027
1.0928134332026223 2.427288315281854 1.8506153023336667
1.0928134332026223 2.4355212377501063 1.8472051141893502
1.0928134332026223 2.444356251827159 1.8460419625198865
1.0928134332026223 2.453191265904212 1.8472051141893502
1.0928134332026223 2.4614241883724644 1.8506153023336667
1.0928134332026223 2.468493959171253 1.8560401282664027
1.0928134332026223 2.473918785103989 1.8631098990651915
1.0928134332026223 2.4773289732483055 1.8713428215334442
1.1084673546157058 2.463684361418906 1.8801778356104968
1.1084673546157058 2.462521209749442 1.8890128496875493
1.1084673546157058 2.4591110216051257 1.897245772155802
1.1084673546157058 2.4536861956723897 1.9043155429545908
1.1084673546157058 2.446616424873601 1.909740368887327
1.1084673546157058 2.4383835024053484 1.9131505570316434
1.1084673546157058 2.4295484883282956 1.914313708701107
1.1084673546157058 2.420713474251243 1.9131505570316434
1.1084673546157058 2.4124805517829904 1.909740368887327
1.1084673546157058 2.4054107809842016 1.9043155429545908
1.1084673546157058 2.3999859550514655 1.897245772155802
1.1084673546157058 2.3965757669071492 1.8890128496875493
1.1084673546157058 2.395412615237685 1.8801778356104968
1.1084673546157058 2.3965757669071492 1.8713428215334442
1.1084673546157058 2.3999859550514655 1.8631098990651915
1.1084673546157058 2.4054107809842016 1.8560401282664027
1.1084673546157058 2.4124805517829904 1.8506153023336667
1.1084673546157058 2.420713474251243 1.8472051141893502
1.1084673546157058 2.4295484883282956 1.8460419625198865
1.1084673546157058 2.4383835024053484 1.8472051141893502
1.1084673546157058 2.446616424873601 1.8506153023336667
1.1084673546157058 2.4536861956723897 1.8560401282664027
1.1084673546157058 2.4591110216051257 1.8631098990651915
1.1084673546157058 2.462521209749442 1.8713428215334442
1.1241212760287898 2.4488765979200435 1.8801778356104968
1.1241212760287898 2.4477134462505794 1.8890128496875493
1.1241212760287898 2.444303258106263 1.897245772155802
1.1241212760287898 2.438878432173527 1.9043155429545908
1.1241212760287898 2.4318086613747383 1.909740368887327
1.1241212760287898 2.423575738906486 1.9131505570316434
1.1241212760287898 2.414740724829433 1.914313708701107
1.1241212760287898 2.4059057107523802 1.9131505570316434
1.1241212760287898 2.3976727882841278 1.909740368887327
1.1241212760287898 2.390603017485339 1.9043155429545908
1.1241212760287898 2.385178191552603 1.897245772155802
1.1241212760287898 2.3817680034082866 1.8890128496875493
1.1241212760287898 2.3806048517388225 1.8801778356104968
1.1241212760287898 2.3817680034082866 1.8713428215334442
1.1241212760287898 2.385178191552603 1.8631098990651915
1.1241212760287898 2.390603017485339 1.8560401282664027
1.1241212760287898 2.3976727882841278 1.8506153023336667
1.1241212760287898 2.4059057107523802 1.8472051141893502
1.1241212760287898 2.414740724829433 1.8460419625198865
1.1241212760287898 2.423575738906486 1.8472051141893502
1.1241212760287898 2.4318086613747383 1.8506153023336667
1.1241212760287898 2.438878432173527 1.8560401282664027
1.1241212760287898 2.444303258106263 1.8631098990651915
1.1241212760287898 2.4477134462505794 1.8713428215334442
1.1397751974418733 2.4340688344211805 1.8801778356104968
1.1397751974418733 2.4329056827517164 1.8890128496875493
1.1397751974418733 2.4294954946074 1.897245772155802
1.1397751974418733 2.424070668674664 1.9043155429545908
1.1397751974418733 2.4170008978758752 1.909740368887327
1.1397751974418733 2.4087679754076228 1.9131505570316434
1.1397751974418733 2.39993296133057 1.914313708701107
1.1397751974418733 2.391097947253517 1.9131505570316434
1.1397751974418733 2.3828650247852647 1.909740368887327
1.1397751974418733 2.375795253986476 1.9043155429545908
1.1397751974418733 2.37037042805374 1.897245772155802
1.1397751974418733 2.3669602399094236 1.8890128496875493
1.1397751974418733 2.3657970882399595 1.8801778356104968
1.1397751974418733 2.3669602399094236 1.8713428215334442
1.1397751974418733 2.37037042805374 1.8631098990651915
1.1397751974418733 2.375795253986476 1.8560401282664027
1.1397751974418733 2.3828650247852647 1.8506153023336667
1.1397751974418733 2.391097947253517 1.8472051141893502
1.1397751974418733 2.39993296133057 1.8460419625198865
1.1397751974418733 2.4087679754076228 1.8472051141893502
1.1397751974418733 2.4170008978758752 1.8506153023336667
1.1397751974418733 2.424070668674664 1.8560401282664027
1.1397751974418733 2.4294954946074 1.8631098990651915
1.1397751974418733 2.4329056827517164 1.8713428215334442
1.1554291188549568 2.4192610709223175 1.8801778356104968
1.1554291188549568 2.4180979192528533 1.8890128496875493
1.1554291188549568 2.414687731108537 1.897245772155802
1.1554291188549568 2.409262905175801 1.9043155429545908
1.1554291188549568 2.402193134377012 1.909740368887327
1.1554291188549568 2.3939602119087597 1.9131505570316434
1.1554291188549568 2.385125197831707 1.914313708701107
1.1554291188549568 2.376290183754654 1.9131505570316434
1.1554291188549568 2.3680572612864017 1.909740368887327
1.1554291188549568 2.360987490487613 1.9043155429545908
1.1554291188549568 2.355562664554877 1.897245772155802
1.1554291188549568 2.3521524764105606 1.8890128496875493
1.1554291188549568 2.3509893247410965 1.8801778356104968
1.1554291188549568 2.3521524764105606 1.8713428215334442
1.1554291188549568 2.355562664554877 1.8631098990651915
1.1554291188549568 2.360987490487613 1.8560401282664027
1.1554291188549568 2.3680572612864017 1.8506153023336667
1.1554291188549568 2.376290183754654 1.8472051141893502
1.1554291188549568 2.385125197831707 1.8460419625198865
1.1554291188549568 2.3939602119087597 1.8472051141893502
1.1554291188549568 2.402193134377012 1.8506153023336667
1.1554291188549568 2.409262905175801 1.8560401282664027
1.1554291188549568 2.414687731108537 1.8631098990651915
1.1554291188549568 2.4180979192528533 1.8713428215334442
1.1710830402680408 2.4044533074234544 1.8801778356104968
1.1710830402680408 2.4032901557539903 1.8890128496875493
1.1710830402680408 2.399879967609674 1.897245772155802
1.1710830402680408 2.394455141676938 1.9043155429545908
1.1710830402680408 2.387385370878149 1.909740368887327
1.1710830402680408 2.3791524484098967 1.9131505570316434
1.1710830402680408 2.370317434332844 1.914313708701107
1.1710830402680408 2.361482420255791 1.9131505570316434
1.1710830402680408 2.3532494977875387 1.909740368887327
1.1710830402680408 2.34617972698875 1.9043155429545908
1.1710830402680408 2.340754901056014 1.897245772155802
1.1710830402680408 2.3373447129116975 1.8890128496875493
1.1710830402680408 2.3361815612422334 1.8801778356104968
1.1710830402680408 2.3373447129116975 1.8713428215334442
1.1710830402680408 2.340754901056014 1.8631098990651915
1.1710830402680408 2.34617972698875 1.8560401282664027
1.1710830402680408 2.3532494977875387 1.8506153023336667
1.1710830402680408 2.361482420255791 1.8472051141893502
1.1710830402680408 2.370317434332844 1.8460419625198865
1.1710830402680408 2.3791524484098967 1.8472051141893502
1.1710830402680408 2.387385370878149 1.8506153023336667
1.1710830402680408 2.394455141676938 1.8560401282664027
1.1710830402680408 2.399879967609674 1.8631098990651915
1.1710830402680408 2.4032901557539903 1.8713428215334442
1.1867369616811243 2.3896455439245914 1.8801778356104968
1.1867369616811243 2.3884823922551273 1.8890128496875493
1.1867369616811243 2.385072204110811 1.897245772155802
1.1867369616811243 2.379647378178075 1.9043155429545908
1.1867369616811243 2.372577607379286 1.909740368887327
1.1867369616811243 2.3643446849110337 1.9131505570316434
1.1867369616811243 2.355509670833981 1.914313708701107
1.1867369616811243 2.346674656756928 1.9131505570316434
1.1867369616811243 2.3384417342886756 1.909740368887327
1.1867369616811243 2.331371963489887 1.9043155429545908
1.1867369616811243 2.3259471375571508 1.897245772155802
1.1867369616811243 2.3225369494128345 1.8890128496875493
1.1867369616811243 2.3213737977433704 1.8801778356104968
1.1867369616811243 2.3225369494128345 1.8713428215334442
1.1867369616811243 2.3259471375571508 1.8631098990651915
1.1867369616811243 2.331371963489887 1.8560401282664027
1.1867369616811243 2.3384417342886756 1.8506153023336667
1.1867369616811243 2.346674656756928 1.8472051141893502
1.1867369616811243 2.355509670833981 1.8460419625198865
1.1867369616811243 2.3643446849110337 1.8472051141893502
1.1867369616811243 2.372577607379286 1.8506153023336667
1.1867369616811243 2.379647378178075 1.8560401282664027
1.1867369616811243 2.385072204110811 1.8631098990651915
1.1867369616811243 2.3884823922551273 1.8713428215334442
1.2023908830942083 2.374837780425729 1.8801778356104968
1.2023908830942083 2.3736746287562647 1.8890128496875493
1.2023908830942083 2.3702644406119484 1.897245772155802
1.2023908830942083 2.3648396146792123 1.9043155429545908
1.2023908830942083 2.3577698438804235 1.909740368887327
1.2023908830942083 2.349536921412171 1.9131505570316434
1.2023908830942083 2.3407019073351183 1.914313708701107
1.2023908830942083 2.3318668932580655 1.9131505570316434
1.2023908830942083 2.323633970789813 1.909740368887327
1.2023908830942083 2.3165641999910243 1.9043155429545908
1.2023908830942083 2.311139374058288 1.897245772155802
1.2023908830942083 2.307729185913972 1.8890128496875493
1.2023908830942083 2.306566034244508 1.8801778356104968
1.2023908830942083 2.307729185913972 1.8713428215334442
1.2023908830942083 2.311139374058288 1.8631098990651915
1.2023908830942083 2.3165641999910243 1.8560401282664027
1.2023908830942083 2.323633970789813 1.8506153023336667
1.2023908830942083 2.3318668932580655 1.8472051141893502
1.2023908830942083 2.3407019073351183 1.8460419625198865
1.2023908830942083 2.349536921412171 1.8472051141893502
1.2023908830942083 2.3577698438804235 1.8506153023336667
1.2023908830942083 2.3648396146792123 1.8560401282664027
1.2023908830942083 2.3702644406119484 1.8631098990651915
1.2023908830942083 2.3736746287562647 1.8713428215334442
1.2180448045072918 2.3600300169268653 1.8801778356104968
1.2180448045072918 2.358866865257401 1.8890128496875493
1.2180448045072918 2.355456677113085 1.897245772155802
1.2180448045072918 2.350031851180349 1.9043155429545908
1.2180448045072918 2.34296208038156 1.909740368887327
1.2180448045072918 2.3347291579133076 1.9131505570316434
1.2180448045072918 2.325894143836255 1.914313708701107
1.2180448045072918 2.317059129759202 1.9131505570316434
1.2180448045072918 2.3088262072909496 1.909740368887327
1.2180448045072918 2.3017564364921608 1.9043155429545908
1.2180448045072918 2.2963316105594247 1.897245772155802
1.2180448045072918 2.2929214224151084 1.8890128496875493
1.2180448045072918 2.2917582707456443 1.8801778356104968
1.2180448045072918 2.2929214224151084 1.8713428215334442
1.2180448045072918 2.2963316105594247 1.8631098990651915
1.2180448045072918 2.3017564364921608 1.8560401282664027
1.2180448045072918 2.3088262072909496 1.8506153023336667
1.2180448045072918 2.317059129759202 1.8472051141893502
1.2180448045072918 2.325894143836255 1.8460419625198865
1.2180448045072918 2.3347291579133076 1.8472051141893502
1.2180448045072918 2.34296208038156 1.8506153023336667
1.2180448045072918 2.350031851180349 1.8560401282664027
1.2180448045072918 2.355456677113085 1.8631098990651915
1.2180448045072918 2.358866865257401 1.8713428215334442
1.2336987259203758 2.3452222534280027 1.8801778356104968
1.2336987259203758 2.3440591017585386 1.8890128496875493
1.2336987259203758 2.3406489136142223 1.897245772155802
1.2336987259203758 2.3352240876814863 1.9043155429545908
1.2336987259203758 2.3281543168826975 1.909740368887327
1.2336987259203758 2.319921394414445 1.9131505570316434
1.2336987259203758 2.311086380337392 1.914313708701107
1.2336987259203758 2.3022513662603394 1.9131505570316434
1.2336987259203758 2.294018443792087 1.909740368887327
1.2336987259203758 2.286948672993298 1.9043155429545908
1.2336987259203758 2.281523847060562 1.897245772155802
1.2336987259203758 2.278113658916246 1.8890128496875493
1.2336987259203758 2.2769505072467817 1.8801778356104968
1.2336987259203758 2.278113658916246 1.8713428215334442
1.2336987259203758 2.281523847060562 1.8631098990651915
1.2336987259203758 2.286948672993298 1.8560401282664027
1.2336987259203758 2.294018443792087 1.8506153023336667
1.2336987259203758 2.3022513662603394 1.8472051141893502
1.2336987259203758 2.311086380337392 1.8460419625198865
1.2336987259203758 2.319921394414445 1.8472051141893502
1.2336987259203758 2.3281543168826975 1.8506153023336667
1.2336987259203758 2.3352240876814863 1.8560401282664027
1.2336987259203758 2.3406489136142223 1.8631098990651915
1.2336987259203758 2.3440591017585386 1.8713428215334442
1.2493526473334593 2.3304144899291397 1.8801778356104968
1.2493526473334593 2.3292513382596756 1.8890128496875493
1.2493526473334593 2.3258411501153593 1.897245772155802
1.2493526473334593 2.3204163241826232 1.9043155429545908
1.2493526473334593 2.3133465533838344 1.909740368887327
1.2493526473334593 2.305113630915582 1.9131505570316434
1.2493526473334593 2.296278616838529 1.914313708701107
1.2493526473334593 2.2874436027614764 1.9131505570316434
1.2493526473334593 2.279210680293224 1.909740368887327
1.2493526473334593 2.272140909494435 1.9043155429545908
1.2493526473334593 2.266716083561699 1.897245772155802
1.2493526473334593 2.263305895417383 1.8890128496875493
1.2493526473334593 2.2621427437479187 1.8801778356104968
1.2493526473334593 2.263305895417383 1.8713428215334442
1.2493526473334593 2.266716083561699 1.8631098990651915
1.2493526473334593 2.272140909494435 1.8560401282664027
1.2493526473334593 2.279210680293224 1.8506153023336667
1.2493526473334593 2.2874436027614764 1.8472051141893502
1.2493526473334593 2.296278616838529 1.8460419625198865
1.2493526473334593 2.305113630915582 1.8472051141893502
1.2493526473334593 2.3133465533838344 1.8506153023336667
1.2493526473334593 2.3204163241826232 1.8560401282664027
1.2493526473334593 2.3258411501153593 1.8631098990651915
1.2493526473334593 2.3292513382596756 1.8713428215334442
1.2650065687465428 2.3156067264302767 1.8801778356104968
1.2650065687465428 2.3144435747608125 1.8890128496875493
1.2650065687465428 2.3110333866164963 1.897245772155802
1.2650065687465428 2.30560856068376 1.9043155429545908
1.2650065687465428 2.2985387898849714 1.909740368887327
1.2650065687465428 2.290305867416719 1.9131505570316434
1.2650065687465428 2.281470853339666 1.914313708701107
1.2650065687465428 2.2726358392626134 1.9131505570316434
1.2650065687465428 2.264402916794361 1.909740368887327
1.2650065687465428 2.257333145995572 1.9043155429545908
1.2650065687465428 2.251908320062836 1.897245772155802
1.2650065687465428 2.2484981319185198 1.8890128496875493
1.2650065687465428 2.2473349802490556 1.8801778356104968
1.2650065687465428 2.2484981319185198 1.8713428215334442
1.2650065687465428 2.251908320062836 1.8631098990651915
1.2650065687465428 2.257333145995572 1.8560401282664027
1.2650065687465428 2.264402916794361 1.8506153023336667
1.2650065687465428 2.2726358392626134 1.8472051141893502
1.2650065687465428 2.281470853339666 1.8460419625198865
1.2650065687465428 2.290305867416719 1.8472051141893502
1.2650065687465428 2.2985387898849714 1.8506153023336667
1.2650065687465428 2.30560856068376 1.8560401282664027
1.2650065687465428 2.3110333866164963 1.8631098990651915
1.2650065687465428 2.3144435747608125 1.8713428215334442
1.2806604901596268 2.3007989629314136 1.8801778356104968
1.2806604901596268 2.2996358112619495 1.8890128496875493
1.2806604901596268 2.2962256231176332 1.897245772155802
1.2806604901596268 2.290800797184897 1.9043155429545908
1.2806604901596268 2.2837310263861084 1.909740368887327
1.2806604901596268 2.275498103917856 1.9131505570316434
1.2806604901596268 2.266663089840803 1.914313708701107
1.2806604901596268 2.2578280757637503 1.9131505570316434
1.2806604901596268 2.249595153295498 1.909740368887327
1.2806604901596268 2.242525382496709 1.9043155429545908
1.2806604901596268 2.237100556563973 1.897245772155802
1.2806604901596268 2.2336903684196567 1.8890128496875493
1.2806604901596268 2.2325272167501926 1.8801778356104968
1.2806604901596268 2.2336903684196567 1.8713428215334442
1.2806604901596268 2.237100556563973 1.8631098990651915
1.2806604901596268 2.242525382496709 1.8560401282664027
1.2806604901596268 2.249595153295498 1.8506153023336667
1.2806604901596268 2.2578280757637503 1.8472051141893502
1.2806604901596268 2.266663089840803 1.8460419625198865
1.2806604901596268 2.275498103917856 1.8472051141893502
1.2806604901596268 2.2837310263861084 1.8506153023336667
1.2806604901596268 2.290800797184897 1.8560401282664027
1.2806604901596268 2.2962256231176332 1.8631098990651915
1.2806604901596268 2.2996358112619495 1.8713428215334442
1.2963144115727103 2.2859911994325506 1.8801778356104968
1.2963144115727103 2.2848280477630865 1.8890128496875493
1.2963144115727103 2.28141785961877 1.897245772155802
1.2963144115727103 2.275993033686034 1.9043155429545908
1.2963144115727103 2.2689232628872453 1.909740368887327
1.2963144115727103 2.260690340418993 1.9131505570316434
1.2963144115727103 2.25185532634194 1.914313708701107
1.2963144115727103 2.2430203122648873 1.9131505570316434
1.2963144115727103 2.234787389796635 1.909740368887327
1.2963144115727103 2.227717618997846 1.9043155429545908
1.2963144115727103 2.22229279306511 1.897245772155802
1.2963144115727103 2.2188826049207937 1.8890128496875493
1.2963144115727103 2.2177194532513296 1.8801778356104968
1.2963144115727103 2.2188826049207937 1.8713428215334442
1.2963144115727103 2.22229279306511 1.8631098990651915
1.2963144115727103 2.227717618997846 1.8560401282664027
1.2963144115727103 2.234787389796635 1.8506153023336667
1.2963144115727103 2.2430203122648873 1.8472051141893502
1.2963144115727103 2.25185532634194 1.8460419625198865
1.2963144115727103 2.260690340418993 1.8472051141893502
1.2963144115727103 2.2689232628872453 1.8506153023336667
1.2963144115727103 2.275993033686034 1.8560401282664027
1.2963144115727103 2.28141785961877 1.8631098990651915
1.2963144115727103 2.2848280477630865 1.8713428215334442
1.3119683329857943 2.2711834359336875 1.8801778356104968
1.3119683329857943 2.2700202842642234 1.8890128496875493
1.3119683329857943 2.266610096119907 1.897245772155802
1.3119683329857943 2.261185270187171 1.9043155429545908
1.3119683329857943 2.2541154993883823 1.909740368887327
1.3119683329857943 2.24588257692013 1.9131505570316434
1.3119683329857943 2.237047562843077 1.914313708701107
1.3119683329857943 2.2282125487660243 1.9131505570316434
1.3119683329857943 2.219979626297772 1.909740368887327
1.3119683329857943 2.212909855498983 1.9043155429545908
1.3119683329857943 2.207485029566247 1.897245772155802
1.3119683329857943 2.2040748414219307 1.8890128496875493
1.3119683329857943 2.2029116897524665 1.8801778356104968
1.3119683329857943 2.2040748414219307 1.8713428215334442
1.3119683329857943 2.207485029566247 1.8631098990651915
1.3119683329857943 2.212909855498983 1.8560401282664027
1.3119683329857943 2.219979626297772 1.8506153023336667
1.3119683329857943 2.2282125487660243 1.8472051141893502
1.3119683329857943 2.237047562843077 1.8460419625198865
1.3119683329857943 2.24588257692013 1.8472051141893502
1.3119683329857943 2.2541154993883823 1.8506153023336667
1.3119683329857943 2.261185270187171 1.8560401282664027
1.3119683329857943 2.266610096119907 1.8631098990651915
1.3119683329857943 2.2700202842642234 1.8713428215334442
1.3276222543988778 2.2563756724348245 1.8801778356104968
1.3276222543988778 2.2552125207653604 1.8890128496875493
1.3276222543988778 2.251802332621044 1.897245772155802
1.3276222543988778 2.246377506688308 1.9043155429545908
1.3276222543988778 2.2393077358895193 1.909740368887327
1.3276222543988778 2.231074813421267 1.9131505570316434
1.3276222543988778 2.222239799344214 1.914313708701107
1.3276222543988778 2.2134047852671612 1.9131505570316434
1.3276222543988778 2.2051718627989088 1.909740368887327
1.3276222543988778 2.19810209200012 1.9043155429545908
1.3276222543988778 2.192677266067384 1.897245772155802
1.3276222543988778 2.1892670779230676 1.8890128496875493
1.3276222543988778 2.1881039262536035 1.8801778356104968
1.3276222543988778 2.1892670779230676 1.8713428215334442
1.3276222543988778 2.192677266067384 1.8631098990651915
1.3276222543988778 2.19810209200012 1.8560401282664027
1.3276222543988778 2.2051718627989088 1.8506153023336667
1.3276222543988778 2.2134047852671612 1.8472051141893502
1.3276222543988778 2.222239799344214 1.8460419625198865
1.3276222543988778 2.231074813421267 1.8472051141893502
1.3276222543988778 2.2393077358895193 1.8506153023336667
1.3276222543988778 2.246377506688308 1.8560401282664027
1.3276222543988778 2.251802332621044 1.8631098990651915
1.3276222543988778 2.2552125207653604 1.8713428215334442
1.3432761758119613 2.241567908935962 1.8801778356104968
1.3432761758119613 2.240404757266498 1.8890128496875493
1.3432761758119613 2.2369945691221815 1.897245772155802
1.3432761758119613 2.2315697431894455 1.9043155429545908
1.3432761758119613 2.2244999723906567 1.909740368887327
1.3432761758119613 2.216267049922404 1.9131505570316434
1.3432761758119613 2.2074320358453514 1.914313708701107
1.3432761758119613 2.1985970217682986 1.9131505570316434
1.3432761758119613 2.190364099300046 1.909740368887327
1.3432761758119613 2.1832943285012574 1.9043155429545908
1.3432761758119613 2.1778695025685213 1.897245772155802
1.3432761758119613 2.174459314424205 1.8890128496875493
1.3432761758119613 2.173296162754741 1.8801778356104968
1.3432761758119613 2.174459314424205 1.8713428215334442
1.3432761758119613 2.1778695025685213 1.8631098990651915
1.3432761758119613 2.1832943285012574 1.8560401282664027
1.3432761758119613 2.190364099300046 1.8506153023336667
1.3432761758119613 2.1985970217682986 1.8472051141893502
1.3432761758119613 2.2074320358453514 1.8460419625198865
1.3432761758119613 2.216267049922404 1.8472051141893502
1.3432761758119613 2.2244999723906567 1.8506153023336667
1.3432761758119613 2.2315697431894455 1.8560401282664027
1.3432761758119613 2.2369945691221815 1.8631098990651915
1.3432761758119613 2.240404757266498 1.8713428215334442
1.3589300972250453 2.2267601454370984 1.8801778356104968
1.3589300972250453 2.2255969937676343 1.8890128496875493
1.3589300972250453 2.222186805623318 1.897245772155802
1.3589300972250453 2.216761979690582 1.9043155429545908
1.3589300972250453 2.209692208891793 1.909740368887327
1.3589300972250453 2.2014592864235407 1.9131505570316434
1.3589300972250453 2.192624272346488 1.914313708701107
1.3589300972250453 2.183789258269435 1.9131505570316434
1.3589300972250453 2.1755563358011827 1.909740368887327
1.3589300972250453 2.168486565002394 1.9043155429545908
1.3589300972250453 2.163061739069658 1.897245772155802
1.3589300972250453 2.1596515509253416 1.8890128496875493
1.3589300972250453 2.1584883992558774 1.8801778356104968
1.3589300972250453 2.1596515509253416 1.8713428215334442
1.3589300972250453 2.163061739069658 1.8631098990651915
1.3589300972250453 2.168486565002394 1.8560401282664027
1.3589300972250453 2.1755563358011827 1.8506153023336667
1.3589300972250453 2.183789258269435 1.8472051141893502
1.3589300972250453 2.192624272346488 1.8460419625198865
1.3589300972250453 2.2014592864235407 1.8472051141893502
1.3589300972250453 2.209692208891793 1.8506153023336667
1.3589300972250453 2.216761979690582 1.8560401282664027
1.3589300972250453 2.222186805623318 1.8631098990651915
1.3589300972250453 2.2255969937676343 1.8713428215334442
1.3745840186381288 2.211952381938236 1.8801778356104968
1.3745840186381288 2.2107892302687717 1.8890128496875493
1.3745840186381288 2.2073790421244555 1.897245772155802
1.3745840186381288 2.2019542161917194 1.9043155429545908
1.3745840186381288 2.1948844453929306 1.909740368887327
1.3745840186381288 2.186651522924678 1.9131505570316434
1.3745840186381288 2.1778165088476253 1.914313708701107
1.3745840186381288 2.1689814947705726 1.9131505570316434
1.3745840186381288 2.16074857230232 1.909740368887327
1.3745840186381288 2.1536788015035313 1.9043155429545908
1.3745840186381288 2.1482539755707952 1.897245772155802
1.3745840186381288 2.144843787426479 1.8890128496875493
1.3745840186381288 2.143680635757015 1.8801778356104968
1.3745840186381288 2.144843787426479 1.8713428215334442
1.3745840186381288 2.1482539755707952 1.8631098990651915
1.3745840186381288 2.1536788015035313 1.8560401282664027
1.3745840186381288 2.16074857230232 1.8506153023336667
1.3745840186381288 2.1689814947705726 1.8472051141893502
1.3745840186381288 2.1778165088476253 1.8460419625198865
1.3745840186381288 2.186651522924678 1.8472051141893502
1.3745840186381288 2.1948844453929306 1.8506153023336667
1.3745840186381288 2.2019542161917194 1.8560401282664027
1.3745840186381288 2.2073790421244555 1.8631098990651915
1.3745840186381288 2.2107892302687717 1.8713428215334442
1.3902379400512128 2.197144618439373 1.8801778356104968
1.3902379400512128 2.1959814667699087 1.8890128496875493
1.3902379400512128 2.1925712786255924 1.897245772155802
1.3902379400512128 2.1871464526928563 1.9043155429545908
1.3902379400512128 2.1800766818940676 1.909740368887327
1.3902379400512128 2.171843759425815 1.9131505570316434
1.3902379400512128 2.1630087453487623 1.914313708701107
1.3902379400512128 2.1541737312717095 1.9131505570316434
1.3902379400512128 2.145940808803457 1.909740368887327
1.3902379400512128 2.1388710380046683 1.9043155429545908
1.3902379400512128 2.133446212071932 1.897245772155802
1.3902379400512128 2.130036023927616 1.8890128496875493
1.3902379400512128 2.128872872258152 1.8801778356104968
1.3902379400512128 2.130036023927616 1.8713428215334442
1.3902379400512128 2.133446212071932 1.8631098990651915
1.3902379400512128 2.1388710380046683 1.8560401282664027
1.3902379400512128 2.145940808803457 1.8506153023336667
1.3902379400512128 2.1541737312717095 1.8472051141893502
1.3902379400512128 2.1630087453487623 1.8460419625198865
1.3902379400512128 2.171843759425815 1.8472051141893502
1.3902379400512128 2.1800766818940676 1.8506153023336667
1.3902379400512128 2.1871464526928563 1.8560401282664027
1.3902379400512128 2.1925712786255924 1.8631098990651915
1.3902379400512128 2.1959814667699087 1.8713428215334442
1.4058918614642963 2.1823368549405098 1.8801778356104968
1.4058918614642963 2.1811737032710456 1.8890128496875493
1.4058918614642963 2.1777635151267294 1.897245772155802
1.4058918614642963 2.1723386891939933 1.9043155429545908
1.4058918614642963 2.1652689183952045 1.909740368887327
1.4058918614642963 2.157035995926952 1.9131505570316434
1.4058918614642963 2.1482009818498993 1.914313708701107
1.4058918614642963 2.1393659677728465 1.9131505570316434
1.4058918614642963 2.131133045304594 1.909740368887327
1.4058918614642963 2.1240632745058052 1.9043155429545908
1.4058918614642963 2.118638448573069 1.897245772155802
1.4058918614642963 2.115228260428753 1.8890128496875493
1.4058918614642963 2.1140651087592888 1.8801778356104968
1.4058918614642963 2.115228260428753 1.8713428215334442
1.4058918614642963 2.118638448573069 1.8631098990651915
1.4058918614642963 2.1240632745058052 1.8560401282664027
1.4058918614642963 2.131133045304594 1.8506153023336667
1.4058918614642963 2.1393659677728465 1.8472051141893502
1.4058918614642963 2.1482009818498993 1.8460419625198865
1.4058918614642963 2.157035995926952 1.8472051141893502
1.4058918614642963 2.1652689183952045 1.8506153023336667
1.4058918614642963 2.1723386891939933 1.8560401282664027
1.4058918614642963 2.1777635151267294 1.8631098990651915
1.4058918614642963 2.1811737032710456 1.8713428215334442
1.4215457828773803 2.1675290914416467 1.8801778356104968
1.4215457828773803 2.1663659397721826 1.8890128496875493
1.4215457828773803 2.1629557516278664 1.897245772155802
1.4215457828773803 2.1575309256951303 1.9043155429545908
1.4215457828773803 2.1504611548963415 1.909740368887327
1.4215457828773803 2.142228232428089 1.9131505570316434
1.4215457828773803 2.1333932183510362 1.914313708701107
1.4215457828773803 2.1245582042739835 1.9131505570316434
1.4215457828773803 2.116325281805731 1.909740368887327
1.4215457828773803 2.109255511006942 1.9043155429545908
1.4215457828773803 2.103830685074206 1.897245772155802
1.4215457828773803 2.10042049692989 1.8890128496875493
1.4215457828773803 2.0992573452604257 1.8801778356104968
1.4215457828773803 2.10042049692989 1.8713428215334442
1.4215457828773803 2.103830685074206 1.8631098990651915
1.4215457828773803 2.109255511006942 1.8560401282664027
1.4215457828773803 2.116325281805731 1.8506153023336667
1.4215457828773803 2.1245582042739835 1.8472051141893502
1.4215457828773803 2.1333932183510362 1.8460419625198865
1.4215457828773803 2.142228232428089 1.8472051141893502
1.4215457828773803 2.1504611548963415 1.8506153023336667
1.4215457828773803 2.1575309256951303 1.8560401282664027
1.4215457828773803 2.1629557516278664 1.8631098990651915
1.4215457828773803 2.1663659397721826 1.8713428215334442
1.4371997042904638 2.1527213279427837 1.8801778356104968
1.4371997042904638 2.1515581762733196 1.8890128496875493
1.4371997042904638 2.1481479881290033 1.897245772155802
1.4371997042904638 2.1427231621962672 1.9043155429545908
1.4371997042904638 2.1356533913974785 1.909740368887327
1.4371997042904638 2.127420468929226 1.9131505570316434
1.4371997042904638 2.118585454852173 1.914313708701107
1.4371997042904638 2.1097504407751204 1.9131505570316434
1.4371997042904638 2.101517518306868 1.909740368887327
1.4371997042904638 2.094447747508079 1.9043155429545908
1.4371997042904638 2.089022921575343 1.897245772155802
1.4371997042904638 2.085612733431027 1.8890128496875493
1.4371997042904638 2.0844495817615627 1.8801778356104968
1.4371997042904638 2.085612733431027 1.8713428215334442
1.4371997042904638 2.089022921575343 1.8631098990651915
1.4371997042904638 2.094447747508079 1.8560401282664027
1.4371997042904638 2.101517518306868 1.8506153023336667
1.4371997042904638 2.1097504407751204 1.8472051141893502
1.4371997042904638 2.118585454852173 1.8460419625198865
1.4371997042904638 2.127420468929226 1.8472051141893502
1.4371997042904638 2.1356533913974785 1.8506153023336667
1.4371997042904638 2.1427231621962672 1.8560401282664027
1.4371997042904638 2.1481479881290033 1.8631098990651915
1.4371997042904638 2.1515581762733196 1.8713428215334442
1.4528536257035474 2.137913564443921 1.8801778356104968
1.4528536257035474 2.136750412774457 1.8890128496875493
1.4528536257035474 2.1333402246301407 1.897245772155802
1.4528536257035474 2.1279153986974046 1.9043155429545908
1.4528536257035474 2.120845627898616 1.909740368887327
1.4528536257035474 2.1126127054303634 1.9131505570316434
1.4528536257035474 2.1037776913533106 1.914313708701107
1.4528536257035474 2.094942677276258 1.9131505570316434
1.4528536257035474 2.0867097548080054 1.909740368887327
1.4528536257035474 2.0796399840092166 1.9043155429545908
1.4528536257035474 2.0742151580764805 1.897245772155802
1.4528536257035474 2.0708049699321642 1.8890128496875493
1.4528536257035474 2.0696418182627 1.8801778356104968
1.4528536257035474 2.0708049699321642 1.8713428215334442
1.4528536257035474 2.0742151580764805 1.8631098990651915
1.4528536257035474 2.0796399840092166 1.8560401282664027
1.4528536257035474 2.0867097548080054 1.8506153023336667
1.4528536257035474 2.094942677276258 1.8472051141893502
1.4528536257035474 2.1037776913533106 1.8460419625198865
1.4528536257035474 2.1126127054303634 1.8472051141893502
1.4528536257035474 2.120845627898616 1.8506153023336667
1.4528536257035474 2.1279153986974046 1.8560401282664027
1.4528536257035474 2.1333402246301407 1.8631098990651915
1.4528536257035474 2.136750412774457 1.8713428215334442
1.4685075471166313 2.1231058009450576 1.8801778356104968
1.4685075471166313 2.1219426492755935 1.8890128496875493
1.4685075471166313 2.1185324611312772 1.897245772155802
1.4685075471166313 2.113107635198541 1.9043155429545908
1.4685075471166313 2.1060378643997524 1.909740368887327
1.4685075471166313 2.0978049419315 1.9131505570316434
1.4685075471166313 2.088969927854447 1.914313708701107
1.4685075471166313 2.0801349137773943 1.9131505570316434
1.4685075471166313 2.071901991309142 1.909740368887327
1.4685075471166313 2.064832220510353 1.9043155429545908
1.4685075471166313 2.059407394577617 1.897245772155802
1.4685075471166313 2.0559972064333008 1.8890128496875493
1.4685075471166313 2.0548340547638366 1.8801778356104968
1.4685075471166313 2.0559972064333008 1.8713428215334442
1.4685075471166313 2.059407394577617 1.8631098990651915
1.4685075471166313 2.064832220510353 1.8560401282664027
1.4685075471166313 2.071901991309142 1.8506153023336667
1.4685075471166313 2.0801349137773943 1.8472051141893502
1.4685075471166313 2.088969927854447 1.8460419625198865
1.4685075471166313 2.0978049419315 1.8472051141893502
1.4685075471166313 2.1060378643997524 1.8506153023336667
1.4685075471166313 2.113107635198541 1.8560401282664027
1.4685075471166313 2.1185324611312772 1.8631098990651915
1.4685075471166313 2.1219426492755935 1.8713428215334442
1.4841614685297149 2.108298037446195 1.8801778356104968
1.4841614685297149 2.107134885776731 1.8890128496875493
1.4841614685297149 2.1037246976324147 1.897245772155802
1.4841614685297149 2.0982998716996786 1.9043155429545908
1.4841614685297149 2.09123010090089 1.909740368887327
1.4841614685297149 2.0829971784326373 1.9131505570316434
1.4841614685297149 2.0741621643555845 1.914313708701107
1.4841614685297149 2.0653271502785318 1.9131505570316434
1.4841614685297149 2.0570942278102793 1.909740368887327
1.4841614685297149 2.0500244570114905 1.9043155429545908
1.4841614685297149 2.0445996310787544 1.897245772155802
1.4841614685297149 2.041189442934438 1.8890128496875493
1.4841614685297149 2.040026291264974 1.8801778356104968
1.4841614685297149 2.041189442934438 1.8713428215334442
1.4841614685297149 2.0445996310787544 1.8631098990651915
1.4841614685297149 2.0500244570114905 1.8560401282664027
1.4841614685297149 2.0570942278102793 1.8506153023336667
1.4841614685297149 2.0653271502785318 1.8472051141893502
1.4841614685297149 2.0741621643555845 1.8460419625198865
1.4841614685297149 2.0829971784326373 1.8472051141893502
1.4841614685297149 2.09123010090089 1.8506153023336667
1.4841614685297149 2.0982998716996786 1.8560401282664027
1.4841614685297149 2.1037246976324147 1.8631098990651915
1.4841614685297149 2.107134885776731 1.8713428215334442
1.4998153899427988 2.0934902739473316 1.8801778356104968
1.4998153899427988 2.0923271222778674 1.8890128496875493
1.4998153899427988 2.088916934133551 1.897245772155802
1.4998153899427988 2.083492108200815 1.9043155429545908
1.4998153899427988 2.0764223374020263 1.909740368887327
1.4998153899427988 2.068189414933774 1.9131505570316434
1.4998153899427988 2.059354400856721 1.914313708701107
1.4998153899427988 2.0505193867796683 1.9131505570316434
1.4998153899427988 2.042286464311416 1.909740368887327
1.4998153899427988 2.035216693512627 1.9043155429545908
1.4998153899427988 2.029791867579891 1.897245772155802
1.4998153899427988 2.0263816794355747 1.8890128496875493
1.4998153899427988 2.0252185277661106 1.8801778356104968
1.4998153899427988 2.0263816794355747 1.8713428215334442
1.4998153899427988 2.029791867579891 1.8631098990651915
1.4998153899427988 2.035216693512627 1.8560401282664027
1.4998153899427988 2.042286464311416 1.8506153023336667
1.4998153899427988 2.0505193867796683 1.8472051141893502
1.4998153899427988 2.059354400856721 1.8460419625198865
1.4998153899427988 2.068189414933774 1.8472051141893502
1.4998153899427988 2.0764223374020263 1.8506153023336667
1.4998153899427988 2.083492108200815 1.8560401282664027
1.4998153899427988 2.088916934133551 1.8631098990651915
1.4998153899427988 2.0923271222778674 1.8713428215334442
1.5154693113558824 2.078682510448469 1.8801778356104968
1.5154693113558824 2.077519358779005 1.8890128496875493
1.5154693113558824 2.0741091706346886 1.897245772155802
1.5154693113558824 2.0686843447019525 1.9043155429545908
1.5154693113558824 2.0616145739031637 1.909740368887327
1.5154693113558824 2.0533816514349112 1.9131505570316434
1.5154693113558824 2.0445466373578585 1.914313708701107
1.5154693113558824 2.0357116232808057 1.9131505570316434
1.5154693113558824 2.027478700812553 1.909740368887327
1.5154693113558824 2.0204089300137644 1.9043155429545908
1.5154693113558824 2.0149841040810283 1.897245772155802
1.5154693113558824 2.011573915936712 1.8890128496875493
1.5154693113558824 2.010410764267248 1.8801778356104968
1.5154693113558824 2.011573915936712 1.8713428215334442
1.5154693113558824 2.0149841040810283 1.8631098990651915
1.5154693113558824 2.0204089300137644 1.8560401282664027
1.5154693113558824 2.027478700812553 1.8506153023336667
1.5154693113558824 2.0357116232808057 1.8472051141893502
1.5154693113558824 2.0445466373578585 1.8460419625198865
1.5154693113558824 2.0533816514349112 1.8472051141893502
1.5154693113558824 2.0616145739031637 1.8506153023336667
1.5154693113558824 2.0686843447019525 1.8560401282664027
1.5154693113558824 2.0741091706346886 1.8631098990651915
1.5154693113558824 2.077519358779005 1.8713428215334442
1.738827645386181 1.3802680123922788 1.0578824845226464
1.738827645386181 1.3793782631886136 1.0646408006956802
1.738827645386181 1.3767696505154676 1.0709385487901675
1.738827645386181 1.3726199470155795 1.0763465476809895
1.738827645386181 1.3672119481247575 1.0804962511808776
1.738827645386181 1.3609142000302703 1.0831048638540235
1.738827645386181 1.3541558838572365 1.0839946130576887
1.738827645386181 1.3473975676842027 1.0831048638540235
1.738827645386181 1.3410998195897155 1.0804962511808776
1.738827645386181 1.3356918206988935 1.0763465476809895
1.738827645386181 1.3315421171990054 1.0709385487901675
1.738827645386181 1.3289335045258595 1.0646408006956805
1.738827645386181 1.3280437553221942 1.0578824845226464
1.738827645386181 1.3289335045258595 1.0511241683496124
1.738827645386181 1.3315421171990054 1.0448264202551254
1.738827645386181 1.3356918206988935 1.0394184213643034
1.738827645386181 1.3410998195897155 1.0352687178644153
1.738827645386181 1.3473975676842027 1.0326601051912694
1.738827645386181 1.3541558838572365 1.0317703559876041
1.738827645386181 1.3609142000302703 1.0326601051912694
1.738827645386181 1.3672119481247575 1.0352687178644153
1.738827645386181 1.3726199470155795 1.0394184213643034
1.738827645386181 1.3767696505154676 1.0448264202551254
1.738827645386181 1.3793782631886136 1.0511241683496124
1.724391524859829 1.3846962698361418 1.0596294147739118
1.724391524859829 1.3838065206324766 1.0663877309469458
1.724391524859829 1.3811979079593306 1.0726854790414329
1.724391524859829 1.3770482044594425 1.0780934779322549
1.724391524859829 1.3716402055686205 1.082243181432143
1.724391524859829 1.3653424574741333 1.0848517941052889
1.724391524859829 1.3585841413010995 1.0857415433089541
1.724391524859829 1.3518258251280657 1.0848517941052889
1.724391524859829 1.3455280770335785 1.082243181432143
1.724391524859829 1.3401200781427565 1.0780934779322549
1.724391524859829 1.3359703746428684 1.0726854790414329
1.724391524859829 1.3333617619697224 1.0663877309469458
1.724391524859829 1.3324720127660572 1.0596294147739118
1.724391524859829 1.3333617619697224 1.0528710986008778
1.724391524859829 1.3359703746428684 1.0465733505063908
1.724391524859829 1.3401200781427565 1.0411653516155688
1.724391524859829 1.3455280770335785 1.0370156481156807
1.724391524859829 1.3518258251280657 1.0344070354425348
1.724391524859829 1.3585841413010995 1.0335172862388695
1.724391524859829 1.3653424574741333 1.0344070354425348
1.724391524859829 1.3716402055686205 1.0370156481156807
1.724391524859829 1.3770482044594425 1.0411653516155688
1.724391524859829 1.3811979079593306 1.0465733505063908
1.724391524859829 1.3838065206324766 1.0528710986008778
1.7099554043334768 1.389124527280005 1.061376345025177
1.7099554043334768 1.3882347780763398 1.068134661198211
1.7099554043334768 1.3856261654031938 1.074432409292698
1.7099554043334768 1.3814764619033058 1.07984040818352
1.7099554043334768 1.3760684630124838 1.083990111683408
1.7099554043334768 1.3697707149179967 1.086598724356554
1.7099554043334768 1.3630123987449627 1.0874884735602193
1.7099554043334768 1.356254082571929 1.086598724356554
1.7099554043334768 1.3499563344774417 1.083990111683408
1.7099554043334768 1.3445483355866197 1.07984040818352
1.7099554043334768 1.3403986320867316 1.074432409292698
1.7099554043334768 1.3377900194135857 1.068134661198211
1.7099554043334768 1.3369002702099204 1.061376345025177
1.7099554043334768 1.3377900194135857 1.054618028852143
1.7099554043334768 1.3403986320867316 1.048320280757656
1.7099554043334768 1.3445483355866197 1.042912281866834
1.7099554043334768 1.3499563344774417 1.0387625783669459
1.7099554043334768 1.356254082571929 1.0361539656938
1.7099554043334768 1.3630123987449627 1.0352642164901347
1.7099554043334768 1.3697707149179965 1.0361539656938
1.7099554043334768 1.3760684630124838 1.0387625783669459
1.7099554043334768 1.3814764619033058 1.042912281866834
1.7099554043334768 1.3856261654031938 1.048320280757656
1.7099554043334768 1.3882347780763398 1.054618028852143
